# .PCD v0.7 - Point Cloud Data file format
VERSION 0.7
FIELDS x y z rgb
SIZE 4 4 4 4
TYPE F F F U
COUNT 1 1 1 1
WIDTH 1148
HEIGHT 1
VIEWPOINT 0 0 0 1 0 0 0
POINTS 1148
DATA ascii
46.254463 -39.7374 849.42499 4282747257
47.630825 -38.866192 831.5127 4278519300
47.939552 -38.821907 831.02856 4278455558
48.33226 -38.797821 829.79987 4279178511
48.761539 -38.739368 829.21509 4279837979
49.170567 -38.72879 828.38013 4280693541
49.614323 -38.683281 827.92236 4281286703
50.046154 -38.693939 827.48804 4282076216
50.491684 -38.657265 827.16364 4282212678
50.933762 -38.677612 826.90277 4284708434
51.383129 -38.641411 826.67938 4278962308
51.831093 -38.658974 826.53229 4294901667
52.283749 -38.622307 826.40613 4294967295
52.735184 -38.639957 826.32062 4294967295
53.197411 -38.607296 826.19568 4294967295
53.648781 -38.635124 826.10193 4294967295
54.108589 -38.600384 825.93567 4287823871
54.563175 -38.623562 825.8197 4289969794
55.014927 -38.593803 825.74493 4283342712
55.481953 -38.604698 825.53119 4285104994
71.498291 -39.181465 837.84821 4279047184
72.021797 -38.800289 830.54926 4278322692
72.954697 -38.742851 828.854 4278719242
73.5065 -38.727577 828.13599 4279902743
73.960121 -38.713116 828.43445 4281547306
75.17009 -38.823761 830.78485 4283784778
75.231499 -38.752251 828.57709 4282472508
75.634789 -38.679165 827.69531 4281361213
76.038139 -38.691658 827.24963 4284641606
76.473976 -38.655483 826.89319 4278249600
76.900986 -38.670921 826.64484 4294967295
77.348099 -38.62817 826.42041 4294967295
77.790535 -38.653912 826.34857 4294967295
78.271751 -38.62944 826.37701 4294967295
78.742012 -38.655571 826.48358 4294967295
79.242966 -38.632439 826.70044 4278910892
79.726074 -38.669777 826.974 4287394894
80.22747 -38.650154 827.19147 4281756241
80.69677 -38.690052 827.36053 4281681461
81.201164 -38.674156 827.59399 4280237871
130.55647 -38.555035 823.94263 4279770900
131.74834 -38.661442 826.35834 4280955677
133.3497 -38.735203 827.95508 4283259181
133.37703 -38.707569 827.71204 4279406158
133.82799 -38.741638 827.77625 4290616840
134.27393 -38.703358 827.55579 4294967047
134.64967 -38.713917 827.23798 4294967295
135.10132 -38.680527 827.0235 4294967295
135.53331 -38.692764 826.91534 4294967295
136.00856 -38.676662 826.87384 4294967295
136.48567 -38.691818 826.92651 4293263359
137.01434 -38.681175 827.11749 4278249131
137.4709 -38.711987 827.17004 4283058493
137.99295 -38.68084 827.29291 4280108340
138.31026 -38.709492 827.39069 4281351215
138.94009 -38.681904 827.37213 4280759852
277.34726 -38.945114 826.72534 4279045893
278.70822 -38.863728 826.44391 4279375878
279.55405 -38.842796 826.14819 4279705099
279.99866 -38.887497 826.14966 4279770384
280.4826 -38.837936 826.09772 4279705101
280.85895 -38.888653 826.03693 4279836433
281.37363 -38.825684 825.93585 4280033553
281.75104 -38.888718 825.8775 4280230677
282.29666 -38.814751 825.86829 4280230933
282.66373 -38.705452 825.80017 4280297239
284.98282 -38.627369 824.28571 4281021214
285.54294 -38.601128 824.3161 4281152544
285.95581 -38.641418 824.36981 4281153057
286.49863 -38.608368 824.34918 4281350437
286.89667 -38.636742 824.36151 4281219876
287.45032 -38.607796 824.36969 4281482792
287.82632 -38.639713 824.31818 4281483303
288.34918 -38.610001 824.23907 4281614890
288.6969 -38.627697 824.10736 4281681191
289.18182 -38.580894 823.9201 4281746987
289.52765 -38.609539 823.78455 4281812777
289.99994 -38.576645 823.56274 4281813036
290.33588 -38.601334 823.40118 4281944619
290.82333 -38.552792 823.22119 4282010670
291.18088 -38.573166 823.12238 4282010923
291.69705 -38.545513 823.02472 4282143020
292.07971 -38.584545 822.99756 4282077739
292.61639 -38.548668 822.95673 4282603057
293.01477 -38.576054 822.97467 4282471471
293.54782 -38.542576 822.93207 4282538801
293.94055 -38.572205 822.92725 4282538030
294.44525 -38.53949 822.81067 4283196722
294.81992 -38.565018 822.74866 4282801454
295.30035 -38.528885 822.57196 4283197231
295.66061 -38.557499 822.4682 4282866989
296.13693 -38.518875 822.27448 4282870060
296.49796 -38.5438 822.18109 4283001903
296.99655 -38.505207 822.04291 4283002154
297.3703 -38.530537 821.99048 4283527474
297.90033 -38.495789 821.93256 4283791920
298.29153 -38.533432 821.9328 4283463733
298.83719 -38.507755 821.92316 4283530033
299.23901 -38.537315 821.94641 4284449344
299.77396 -38.496059 821.91638 4284581945
300.15897 -38.525097 821.88696 4284649028
300.66983 -38.501659 821.79834 4285175358
301.03137 -38.524368 821.69482 4285109833
301.52435 -38.486084 821.55884 4285570629
301.87521 -38.510345 821.42578 4285702223
302.36749 -38.474964 821.28754 4285375559
302.73386 -38.499851 821.20447 4285639248
303.2587 -38.468452 821.14685 4286757965
303.65128 -38.499882 821.14539 4286363989
304.20963 -38.472103 821.1684 4286561617
304.6221 -38.510376 821.229 4288072805
305.19388 -38.47617 821.27869 4288862554
305.59634 -38.508118 821.31317 4288536684
306.14102 -38.474487 821.29822 4287816799
306.513 -38.503635 821.24243 4288541547
307.01535 -38.469921 821.12695 4288805732
307.36386 -38.496742 820.99823 4290117496
307.84027 -38.459461 820.82349 4290314098
308.18701 -38.480698 820.67926 4291100545
308.67233 -38.445282 820.5304 4291493770
309.04007 -38.470966 820.45062 4291690381
309.57462 -38.43774 820.42255 4291559321
309.97403 -38.473701 820.43945 4292870038
310.55728 -38.445232 820.52454 4294311858
310.97778 -38.486801 820.60071 4294967212
311.56879 -38.454811 820.70361 4294967236
311.9743 -38.4869 820.74426 4294967217
312.53836 -38.452854 820.77612 4294967248
312.89078 -38.486313 820.67633 4294967225
313.42905 -38.454861 820.6394 4294967254
314.22324 -38.435253 820.24921 4294967247
314.92703 -38.407532 819.62775 4294967260
315.79691 -38.395432 819.43921 4294967224
318.85626 -38.424572 820.04028 4294836138
319.73288 -38.41782 819.87817 4293263274
320.53098 -38.396152 819.51398 4293394331
321.41257 -38.396065 819.35571 4292149137
321.7756 -38.425804 819.3432 4291100558
322.33188 -38.39809 819.29352 4290049937
322.69 -38.423985 819.30676 4289391240
323.26746 -38.390072 819.32837 4288274562
323.69797 -38.427128 819.37933 4287352951
324.26382 -38.394325 819.42126 4286957933
324.66623 -38.43055 819.4563 4286693231
325.23608 -38.400051 819.46625 4286231395
325.6192 -38.435535 819.46704 4285505632
326.16394 -38.399788 819.42804 4284256585
326.52673 -38.426773 819.37097 4284121932
327.04358 -38.387478 819.26776 4283596604
327.40662 -38.418865 819.20184 4283462727
327.94061 -38.385918 819.14417 4283068986
328.3154 -38.414478 819.11182 4283132741
328.8656 -38.377613 819.09161 4283000630
329.25354 -38.406448 819.09528 4282998335
329.8291 -38.376873 819.1358 4282669868
330.23056 -38.413326 819.18085 4282209082
330.8067 -38.384853 819.22437 4281880624
331.19958 -38.419533 819.24689 4281616953
331.76361 -38.390827 819.25903 4281616430
332.13876 -38.420349 819.23901 4281484087
332.68588 -38.383461 819.20874 4281418538
333.03979 -38.415577 819.13666 4281155373
333.57718 -38.381058 819.08008 4281089830
333.93073 -38.4053 819.00391 4280759848
334.46811 -38.371361 818.9469 4280890919
334.82486 -38.397381 818.87952 4280824617
335.37527 -38.364285 818.85327 4280758309
335.74942 -38.399391 818.83063 4280495910
336.32437 -38.371834 818.86224 4280364835
336.7067 -38.399578 818.86658 4280298532
337.29004 -38.368492 818.91748 4280232736
337.67981 -38.403744 818.94043 4280297763
338.25607 -38.371983 818.97363 4280232223
338.63174 -38.403072 818.96252 4280232481
339.16797 -38.374763 818.89844 4280166943
339.5181 -38.402737 818.82623 4280101408
340.02853 -38.360676 818.69977 4279970336
340.36029 -38.38847 818.58429 4279838752
340.87613 -38.351734 818.47144 4279904033
341.22327 -38.374111 818.39252 4279837984
341.75226 -38.335903 818.32111 4279772191
342.1376 -38.368229 818.32404 4279771677
342.68793 -38.342155 818.3031 4279837469
343.09091 -38.379272 818.34845 4279771420
343.66031 -38.355694 818.37323 4279640091
344.04208 -38.383369 818.36987 4279442969
344.59607 -38.340286 818.34613 4279508248
344.95493 -38.375404 818.29913 4279442199
345.491 -38.343582 818.23468 4279441941
345.82605 -38.3638 818.11798 4279376149
346.34955 -38.332394 818.03687 4279310357
346.69547 -38.350948 817.95746 4279244564
347.22934 -38.318432 817.88629 4279244307
347.58389 -38.344601 817.8349 4279178515
348.13376 -38.321819 817.79785 4279178258
348.49396 -38.349262 817.75885 4279046672
349.06082 -38.322495 817.7619 4279046415
349.42148 -38.350212 817.72119 4279046415
349.96564 -38.31097 817.6748 4278915086
350.31882 -38.347317 817.61505 4278849293
350.8526 -38.308357 817.54565 4278914829
351.17831 -38.32859 817.41901 4278849037
351.66791 -38.292023 817.24731 4278783244
351.95026 -38.319611 817.02502 4278782988
352.38113 -38.280743 816.74963 4278717451
352.70837 -38.29414 816.59875 4278651658
352.92664 -38.241669 815.89441 4278585864
353.50919 -38.298805 816.27423 4278585608
354.33392 -38.273338 816.1015 4278585607
46.332355 -38.961716 842.41711 4278459648
46.910561 -38.421463 834.23718 4278387972
47.55267 -38.382488 831.80737 4278519555
47.876999 -38.271137 830.98096 4278455303
48.341335 -38.302765 829.7934 4279244559
48.700203 -38.190693 829.18115 4280034845
49.176315 -38.23814 828.37994 4280759335
49.555077 -38.139484 827.9295 4281352239
50.046612 -38.20623 827.49127 4282404151
50.433121 -38.113171 827.18402 4282539848
50.933357 -38.187866 826.9212 4285760841
51.325027 -38.096565 826.70825 4284464515
51.828918 -38.168644 826.5553 4294967210
52.226154 -38.070602 826.42981 4294967295
52.742115 -38.146465 826.33478 4294967295
53.138691 -38.060257 826.20209 4294967295
53.655251 -38.14315 826.11011 4294967295
54.048397 -38.056362 825.92957 4294967271
54.562653 -38.134151 825.80011 4288727926
54.962715 -38.043148 825.73438 4284320883
55.470322 -38.117512 825.47388 4285170527
72.402016 -38.192677 827.97961 4278716930
72.812263 -38.1483 828.14197 4278784523
73.377838 -38.229813 828.03485 4280034837
73.751099 -38.153336 828.25183 4281876267
74.287071 -38.251938 828.2962 4283585605
74.669724 -38.159027 828.13257 4283916104
75.20446 -38.237808 828.16718 4282210618
75.562813 -38.139996 827.79327 4281555774
76.047287 -38.208847 827.36914 4286284076
76.407631 -38.109814 826.92896 4281317770
76.902061 -38.180622 826.6579 4294967253
77.282585 -38.08226 826.45215 4294967295
77.799728 -38.165531 826.37207 4294967295
78.206116 -38.084251 826.40515 4294967295
78.745071 -38.169945 826.51752 4294967295
79.175491 -38.086544 826.72858 4278235841
79.738472 -38.181023 827.02124 4287662133
80.157539 -38.105469 827.21112 4282144587
80.714966 -38.196308 827.40143 4281681456
81.129433 -38.128006 827.60107 4280367149
130.82571 -38.140671 825.72192 4279902485
131.14267 -38.065125 825.86835 4280297754
131.74797 -38.157024 826.1687 4281021979
132.18175 -38.101414 826.54224 4281550373
133.32707 -38.231373 827.75861 4283588393
133.25919 -38.155029 827.45636 4282677064
133.84131 -38.250824 827.6958 4293980416
134.20277 -38.15485 827.5719 4294967251
134.66878 -38.224457 827.23438 4294967295
135.04088 -38.129692 827.0592 4294967295
135.55807 -38.197323 826.91797 4294967295
135.94203 -38.120399 826.86084 4294967295
136.51213 -38.198692 826.89484 4278255615
136.92035 -38.132092 827.06134 4278213287
137.49133 -38.218185 827.10168 4283259169
137.87994 -38.136772 827.21246 4280171572
138.32719 -38.211163 827.31592 4281548079
138.81346 -38.139229 827.29156 4280956459
279.98825 -38.458069 826.03864 4278652934
280.31995 -38.401455 825.99371 4278783751
280.91415 -38.4324 825.97949 4278719239
281.24677 -38.359432 825.93695 4278915335
281.82169 -38.397133 825.86865 4278981640
282.16986 -38.136585 825.8739 4279177993
282.74478 -38.207691 825.8158 4279178761
283.08267 -38.274925 825.77618 4279375883
285.48785 -38.178566 824.52783 4279968274
286.46219 -38.198029 824.61316 4280166165
287.06854 -38.154976 824.63495 4280429335
287.41666 -38.073383 824.64282 4280560922
287.98898 -38.155228 824.56549 4280561179
288.30988 -38.070011 824.49573 4280890142
288.85886 -38.13979 824.35089 4281087266
289.13654 -38.052673 824.15808 4281350179
289.69409 -38.124104 824.04041 4281219109
289.966 -38.037334 823.84003 4281416229
290.50983 -38.10947 823.67682 4281350437
290.78882 -38.023212 823.51343 4281679143
291.35641 -38.112617 823.40027 4281614120
291.65976 -38.026417 823.29675 4281812008
292.2547 -38.095337 823.27161 4281878058
292.56848 -38.013332 823.18677 4282141227
293.17493 -38.089806 823.20752 4282075179
293.49789 -38.007252 823.14752 4282075947
294.09268 -38.086327 823.14734 4282141739
294.40524 -38.00185 823.04584 4282273579
294.97791 -38.081745 822.98334 4282339115
295.26886 -37.997223 822.82098 4282339627
295.82983 -38.074436 822.73303 4282470954
296.10861 -37.980793 822.53204 4282274858
296.66135 -38.05558 822.41943 4282868269
296.95459 -37.966869 822.2619 4282275882
297.50558 -38.042004 822.14935 4283394096
297.82254 -37.958607 822.0614 4282539565
298.39487 -38.042503 821.99951 4283132724
298.72818 -37.9655 821.96368 4282869811
299.32828 -38.036919 821.97424 4283396409
299.66104 -37.949459 821.94122 4283265079
300.2533 -38.035023 821.92664 4282610483
300.58057 -37.955219 821.87396 4282610227
301.1377 -38.033913 821.76685 4282808113
301.44327 -37.941128 821.6546 4283595833
301.9841 -38.014328 821.50409 4283663677
302.28308 -37.936565 821.37384 4283465531
302.83438 -38.007759 821.25995 4282942778
303.15561 -37.919315 821.18292 4283796033
303.74164 -38.006695 821.17065 4283273029
304.09894 -37.923939 821.18463 4284714570
304.72165 -38.007111 821.27728 4284586833
305.08804 -37.931473 821.31616 4285964883
305.69836 -38.014843 821.37146 4284195918
306.04584 -37.929832 821.36328 4284719948
306.61774 -38.010433 821.31073 4284396878
306.92206 -37.924145 821.19202 4285444943
307.46249 -38.000935 821.05048 4285120338
307.74762 -37.912796 820.87952 4286957146
308.28183 -37.988064 820.72058 4285846105
308.577 -37.898338 820.57776 4287093598
309.13705 -37.973061 820.487 4286637918
309.47626 -37.89209 820.46381 4288343909
310.07434 -37.978264 820.49896 4288216417
310.45273 -37.895115 820.57458 4289003365
311.07806 -37.987926 820.67017 4289462115
311.46658 -37.911522 820.7641 4291362676
312.07227 -37.995346 820.8183 4291428208
312.4184 -37.909698 820.78986 4291297139
312.97168 -37.986866 820.68549 4294246261
313.2692 -37.896244 820.55005 4294115203
313.82016 -37.979881 820.43597 4294967174
314.08905 -37.886284 820.22791 4294311813
314.61682 -37.959778 820.05353 4294967189
315.44534 -37.943569 819.75543 4294967180
316.32852 -37.93895 819.60236 4294967160
321.81836 -37.921421 819.18958 4294967214
322.1485 -37.860489 819.19409 4294967222
322.74768 -37.932392 819.22736 4294967220
323.11786 -37.863831 819.26306 4294901676
323.73392 -37.925129 819.34216 4293656486
324.12097 -37.849689 819.39166 4293197730
324.74994 -37.932137 819.44263 4293656487
325.10306 -37.853271 819.4469 4292673435
325.69037 -37.935791 819.43011 4291690385
326.01819 -37.850887 819.37677 4290112900
326.57578 -37.9244 819.28571 4288994681
326.86826 -37.833042 819.16235 4288468084
327.42682 -37.916054 819.05383 4287679346
327.74161 -37.841953 818.98889 4288202101
328.32452 -37.910404 818.93982 4286365554
328.65765 -37.822113 818.92407 4287148138
329.26511 -37.908325 818.93616 4285178461
329.62329 -37.83009 818.98224 4284912984
330.24948 -37.911968 819.04285 4283208278
330.60876 -37.837017 819.08984 4283990617
331.22186 -37.91671 819.11084 4281695825
331.57205 -37.839451 819.12231 4282741327
332.15842 -37.918716 819.08698 4281365066
332.49487 -37.830986 819.05432 4282607946
333.05222 -37.908298 818.95679 4280313667
333.37482 -37.828655 818.90955 4281555262
333.93546 -37.90395 818.80963 4279522105
334.25858 -37.816319 818.75446 4281223482
334.82599 -37.893787 818.68311 4279519028
335.16693 -37.816708 818.67065 4280828214
335.75388 -37.895882 818.64825 4279844916
336.11417 -37.818493 818.68182 4280695861
336.7113 -37.896729 818.68427 4280303923
337.07904 -37.818867 818.72968 4280301357
337.68314 -37.901417 818.75549 4280236075
338.04294 -37.821648 818.77521 4280431916
338.6268 -37.90097 818.75073 4280171051
338.96594 -37.820686 818.72131 4280169256
339.52966 -37.896091 818.64777 4280104232
339.84753 -37.81398 818.57343 4280300072
340.40408 -37.884815 818.47565 4279906855
340.71683 -37.80344 818.39661 4280037159
341.28592 -37.87875 818.32922 4280037158
341.61124 -37.796284 818.28052 4280232998
342.19919 -37.876087 818.25836 4280036389
342.53922 -37.798717 818.24548 4280166949
343.14648 -37.878483 818.27008 4279970082
343.49966 -37.800514 818.28766 4279838496
344.09592 -37.876274 818.28558 4279707166
344.43359 -37.798309 818.26733 4279640861
345.01337 -37.877182 818.2251 4279641116
345.3399 -37.797691 818.1806 4279574811
345.89938 -37.872303 818.091 4279509275
346.21951 -37.790245 818.0318 4279574299
346.78058 -37.859718 817.94745 4279574043
347.10214 -37.776951 817.88928 4279508249
347.67236 -37.854282 817.82678 4279507993
347.99673 -37.778404 817.77533 4279507736
348.57208 -37.855137 817.72546 4279310871
348.90884 -37.769928 817.70233 4279244822
349.4863 -37.849285 817.65839 4279244565
349.81754 -37.769707 817.62311 4279310101
350.39084 -37.84967 817.57025 4279112980
350.71899 -37.75383 817.52869 4279178516
351.29138 -37.841572 817.50122 4279112980
351.59891 -37.759872 817.41437 4279178258
352.181 -37.835251 817.35236 4278981394
352.48529 -37.751678 817.25696 4279046929
353.06326 -37.832424 817.21246 4278849808
353.38205 -37.749222 817.14941 4278849550
353.95239 -37.820576 817.09045 4278849549
354.28885 -37.750221 817.0675 4278717964
354.8746 -37.820293 817.04498 4278652428
355.20294 -37.734707 817.00409 4278717707
355.78131 -37.816956 816.96326 4278586378
356.07428 -37.730465 816.83936 4278586122
356.65317 -37.819771 816.79913 4278520584
356.99121 -37.746929 816.74982 4278454536
357.53705 -37.803284 816.66339 4278520327
357.90015 -37.712154 816.62317 4278454279
47.617645 -37.910591 831.12225 4278519556
47.913929 -37.870838 830.60626 4278521351
48.3274 -37.858051 829.73187 4279375634
48.753788 -37.803165 829.1004 4280100639
49.168747 -37.800121 828.36951 4280825127
49.611423 -37.755192 827.89178 4281614382
50.044811 -37.767372 827.48096 4282469948
50.490837 -37.729671 827.16718 4282082120
50.93322 -37.749119 826.91376 4284644699
51.383102 -37.712284 826.70221 4285254792
51.83152 -37.727299 826.55878 4293984236
52.28476 -37.688618 826.43622 4294967295
52.736404 -37.709499 826.35101 4294967295
53.198063 -37.681297 826.22089 4294967295
53.651146 -37.71133 826.14709 4294967295
54.109436 -37.67506 825.96777 4294508500
54.563068 -37.697556 825.83234 4288328847
55.025108 -37.667274 825.78162 4283995250
55.4772 -37.67487 825.47809 4285431138
71.451073 -38.183994 836.51184 4279304192
72.089516 -37.850353 830.19037 4278257412
72.939674 -37.800789 828.75208 4278851339
73.441528 -37.795681 828.11829 4280166168
74.265282 -37.808704 828.2038 4283652673
75.176987 -37.794006 827.99573 4282669374
75.616974 -37.747559 827.60498 4281887301
76.027939 -37.762997 827.19781 4285821252
76.469627 -37.725918 826.89722 4278255497
76.899712 -37.738285 826.65338 4294967295
77.348923 -37.700191 826.44788 4294967295
77.791969 -37.730511 826.38336 4294967295
78.275764 -37.705254 826.43793 4294967295
78.747086 -37.728241 826.55212 4294967295
79.249931 -37.70446 826.78876 4278255526
79.732788 -37.74157 827.05933 4286146378
80.230797 -37.722099 827.24518 4281752390
80.701591 -37.762585 827.42529 4281680179
81.200768 -37.744587 827.60529 4280105516
130.64293 -37.685139 825.30066 4279836437
131.17691 -37.666431 825.52032 4280166939
131.63086 -37.700481 825.63885 4281153311
132.25711 -37.715927 826.44104 4281814309
133.38004 -37.800842 827.87677 4283785005
133.35539 -37.777988 827.56476 4278623059
133.82141 -37.818523 827.76007 4294938368
134.28265 -37.779991 827.61615 4294967145
134.64676 -37.79327 827.28607 4294967295
135.10822 -37.748405 827.0675 4294967295
135.52414 -37.764515 826.93396 4294967295
136.00536 -37.746765 826.86755 4294967295
136.47672 -37.765965 826.89056 4294967295
137.00658 -37.752995 827.07507 4278254781
137.45531 -37.785439 827.08881 4283125562
137.97217 -37.754238 827.19727 4279387951
138.19058 -37.775734 827.29919 4281219370
138.87392 -37.748936 827.24768 4280431400
284.1384 -37.963051 824.58539 4279111430
285.13931 -37.956787 824.74677 4279243271
285.69543 -37.896366 824.76733 4279309319
286.14008 -37.952213 824.91223 4279375114
286.668 -37.890289 824.84772 4279441418
287.05624 -37.722137 824.83765 4279573005
287.61429 -37.697083 824.85553 4279704845
287.97409 -37.728874 824.75525 4279770640
288.49908 -37.69762 824.68311 4280033554
288.84784 -37.713871 824.55145 4280165141
289.32904 -37.666344 824.35187 4280165397
289.68951 -37.703701 824.25818 4280165910
290.16266 -37.669205 824.03912 4280363032
290.50098 -37.685898 823.88556 4280559898
290.98578 -37.641644 823.69391 4280691482
291.3403 -37.661221 823.58844 4280823580
291.84698 -37.63612 823.46057 4281086493
292.22992 -37.693718 823.43469 4281087520
292.74606 -37.644337 823.33441 4281218848
293.14194 -37.662872 823.34644 4281219617
293.6824 -37.626938 823.29358 4281351203
294.06601 -37.657906 823.28986 4281351458
294.57782 -37.626106 823.19342 4281482787
294.96341 -37.647713 823.15869 4281614629
295.44992 -37.620407 823.00922 4281745959
295.83658 -37.648426 822.96216 4281812006
296.30966 -37.609318 822.7558 4281878055
296.67688 -37.635067 822.67804 4281878566
297.16962 -37.59399 822.51227 4281944360
297.52011 -37.618221 822.401 4282141481
298.03488 -37.580166 822.29352 4282273065
298.38571 -37.60997 822.18488 4282273835
298.91263 -37.583046 822.13519 4282275115
299.31119 -37.618114 822.138 4282471468
299.82889 -37.575825 822.08405 4282802222
300.22772 -37.603367 822.06769 4282406956
300.74731 -37.583359 822.00482 4283000113
301.11081 -37.604164 821.90198 4282669868
301.61194 -37.562019 821.7832 4283197741
301.95505 -37.584091 821.633 4283198510
302.43918 -37.55468 821.46613 4283067180
302.79254 -37.575493 821.35199 4283001392
303.30267 -37.537941 821.24762 4283265072
303.68918 -37.571648 821.23401 4283199796
304.2468 -37.542099 821.24951 4283134514
304.67227 -37.577187 821.34845 4283922491
305.24249 -37.548706 821.39154 4284317755
305.65259 -37.582237 821.45001 4283792440
306.20056 -37.546871 821.44098 4283793714
306.5766 -37.578377 821.40057 4284056376
307.06973 -37.539841 821.25476 4284255028
307.4155 -37.564976 821.12402 4284255035
307.88589 -37.536606 820.92493 4284651066
308.23206 -37.561176 820.78693 4284586049
308.71588 -37.515869 820.62445 4284785468
309.08197 -37.538685 820.54858 4284917314
309.62091 -37.510815 820.52393 4285509950
310.02844 -37.550293 820.57019 4285968968
310.612 -37.52039 820.65082 4286430267
311.03375 -37.555405 820.7359 4286365256
311.62918 -37.5257 820.84741 4286761795
312.03375 -37.560291 820.88867 4286959181
312.59937 -37.52956 820.922 4287552070
312.94711 -37.558266 820.81348 4288471640
313.47604 -37.526596 820.75751 4288541010
314.27811 -37.51199 820.39569 4289462112
314.99741 -37.486347 819.82349 4291821423
315.88824 -37.477623 819.68872 4291690341
319.10828 -37.525455 820.70142 4294967192
322.5321 -37.501549 819.2132 4294967234
323.14352 -37.473251 819.2334 4294967248
324.22626 -37.472366 819.43896 4294967250
325.23462 -37.474068 819.50775 4294967250
325.5957 -37.506416 819.43866 4294967220
326.11075 -37.468357 819.33911 4294049723
326.46497 -37.497868 819.25879 4294180775
326.94815 -37.452343 819.07361 4293590960
327.28827 -37.483669 818.94849 4293197730
327.80389 -37.447502 818.85229 4292673450
328.17252 -37.475967 818.80273 4292411290
328.72388 -37.439411 818.79065 4291887001
329.12048 -37.471638 818.81488 4291428239
329.70538 -37.441948 818.88379 4290180743
330.11993 -37.483818 818.95685 4288997249
330.69699 -37.452866 819.01239 4287551870
331.09085 -37.48135 819.02887 4287286904
331.64902 -37.44978 819.03638 4286563950
332.02008 -37.485107 818.99622 4286364269
332.55563 -37.446068 818.94666 4285707617
332.90308 -37.476532 818.84998 4285377632
333.44016 -37.442242 818.79163 4284981578
333.793 -37.475132 818.70166 4284453714
334.32037 -37.429279 818.61987 4283269950
334.6835 -37.454437 818.55902 4282938180
335.23611 -37.424778 818.54669 4282609467
335.61743 -37.460121 818.53833 4282475334
336.19376 -37.427155 818.58026 4282014522
336.58057 -37.458836 818.59155 4282079041
337.1633 -37.432381 818.646 4281947182
337.55627 -37.466335 818.67255 4281945911
338.11761 -37.433155 818.6731 4281814567
338.48376 -37.465836 818.63416 4281616432
339.0213 -37.430893 818.57849 4281419303
339.37643 -37.458427 818.51581 4281550131
339.90179 -37.421062 818.43005 4281483816
340.25598 -37.450085 818.35956 4281155119
340.78644 -37.416355 818.29077 4281155114
341.15417 -37.443295 818.2475 4281023021
341.69623 -37.409977 818.21283 4281022250
342.07703 -37.440857 818.19312 4280956461
342.62997 -37.409649 818.18347 4281087017
343.02295 -37.441135 818.20148 4280759082
343.58633 -37.414616 818.20917 4280627749
343.96857 -37.442192 818.21014 4280364582
344.52554 -37.404713 818.19427 4280233249
344.89136 -37.443169 818.16351 4280167203
345.44122 -37.411438 818.13037 4280035871
345.78918 -37.437546 818.05829 4279969569
346.32571 -37.403423 817.99341 4279903776
346.67279 -37.428356 817.92017 4279968801
347.2081 -37.388264 817.85114 4279903005
347.56165 -37.4207 817.79382 4279903006
348.10391 -37.392494 817.74072 4279837211
348.46121 -37.423203 817.69342 4279705627
349.01428 -37.389923 817.6651 4279639576
349.37766 -37.416691 817.63214 4279508504
349.92966 -37.381634 817.60211 4279574297
350.28769 -37.414665 817.55676 4279573785
350.83243 -37.378235 817.50989 4279573528
351.18445 -37.40723 817.45013 4279573528
351.70883 -37.371525 817.3559 4279507734
352.03635 -37.39798 817.24078 4279376662
352.55099 -37.364841 817.13519 4279442199
352.91321 -37.392521 817.0899 4279310613
353.43726 -37.3578 817.02692 4279244564
353.8114 -37.389973 816.98889 4279178771
354.38757 -37.355064 817.01587 4279112978
354.74945 -37.388435 817.01166 4279046929
355.34885 -37.356411 817.05829 4279046928
355.72552 -37.392811 817.06128 4278981136
356.26291 -37.364487 816.99487 4278915342
356.63538 -37.389339 816.9884 4278849294
357.20706 -37.354107 816.99951 4278783500
357.58304 -37.386616 816.97754 4278783244
358.15591 -37.357841 817.01587 4278717450
358.53665 -37.367195 816.98157 4278651658
359.08929 -37.359123 816.99304 4278585864
359.47012 -37.366867 816.93945 4278585607
359.99973 -37.350685 816.91461 4278585350
360.32993 -37.339718 816.75122 4278585351
360.84973 -37.325287 816.66968 4278519558
361.11267 -37.354153 816.58667 4278453765
361.67294 -37.318073 816.53766 4278453764
47.019188 -37.463146 833.49994 4278322436
47.518227 -37.43235 831.40271 4278585347
47.857353 -37.325905 830.66406 4278652169
48.330379 -37.363556 829.68549 4279376146
48.691452 -37.254951 829.04883 4280363297
49.172401 -37.308334 828.33099 4280956970
49.551445 -37.209087 827.88202 4281484337
50.044636 -37.274971 827.47296 4282601786
50.431763 -37.18338 827.17676 4282540108
50.932262 -37.259941 826.92413 4284056409
51.324802 -37.168076 826.72375 4288332949
51.82901 -37.237808 826.57214 4292542422
52.226727 -37.145763 826.45178 4294967295
52.742485 -37.225647 826.35608 4292804607
53.139156 -37.134972 826.22333 4294967295
53.656513 -37.213631 826.14459 4294967295
54.048847 -37.12804 825.95532 4294967261
54.563057 -37.207497 825.81641 4287477129
54.963902 -37.120472 825.76642 4284909428
55.468559 -37.188129 825.44366 4285366366
71.508873 -37.672115 836.45569 4278915328
72.402313 -37.294571 827.99957 4278782979
72.806702 -37.219795 828.09973 4279047693
73.378067 -37.298565 828.03113 4280232727
73.753838 -37.225792 828.29675 4282139948
74.28466 -37.321526 828.2533 4283980610
74.67144 -37.229542 828.1712 4283392578
75.209641 -37.302376 828.13232 4282736700
75.555504 -37.207966 827.73053 4282540874
76.050735 -37.278343 827.38922 4287334700
76.407242 -37.180374 826.94147 4284144283
76.901833 -37.251045 826.6756 4294967295
77.284012 -37.155785 826.48438 4294967295
77.801575 -37.241627 826.40887 4294967295
78.210106 -37.158199 826.46228 4294967295
78.753342 -37.237728 826.57727 4294967295
79.180397 -37.156395 826.79565 4281247654
79.745071 -37.250572 827.07947 4286479164
80.155678 -37.176922 827.23834 4281749314
80.720467 -37.268776 827.43115 4281680429
81.121338 -37.200775 827.59692 4280235307
130.69754 -37.195156 825.24384 4279836435
131.09146 -37.123249 825.56116 4280560412
131.66829 -37.208912 825.69415 4281547550
132.17744 -37.174103 826.53082 4282011175
133.39934 -37.311169 827.98334 4284902184
133.27635 -37.233418 827.57611 4282484558
133.86864 -37.332287 827.8689 4292607744
134.22029 -37.232674 827.6908 4294967295
134.68805 -37.298939 827.3363 4294967295
135.0507 -37.199234 827.12793 4294967295
135.56514 -37.267151 826.9577 4294967295
135.9404 -37.199291 826.87488 4294967295
136.50859 -37.273056 826.88147 4281794559
136.91209 -37.200382 827.02838 4278223044
137.48904 -37.287319 827.09363 4284117032
137.65488 -37.201839 827.2099 4279385135
138.23157 -37.284492 827.37012 4281547045
287.72562 -37.189335 825.54272 4278718214
288.49509 -37.161114 825.04126 4278915592
289.03363 -37.233486 824.86249 4278981639
289.26819 -37.141689 824.5462 4278981641
289.84973 -37.200245 824.49615 4279179017
290.1163 -37.115627 824.29565 4279309836
290.68207 -37.204033 824.17548 4279376395
290.94537 -37.121433 824.01361 4279442446
291.52859 -37.234451 823.89783 4279509520
291.81323 -37.143459 823.76581 4279771922
292.41135 -37.17976 823.72229 4279837970
292.69736 -37.094769 823.56403 4279969299
293.29416 -37.175041 823.55646 4280100884
293.60236 -37.098465 823.45459 4280297750
294.18472 -37.168686 823.43665 4280298263
294.50281 -37.071735 823.33301 4280495385
295.08307 -37.160393 823.30701 4280758044
295.39224 -37.089787 823.17828 4281086238
295.97565 -37.170059 823.1615 4280824094
296.26352 -37.070751 822.97729 4281152799
296.83823 -37.146786 822.90735 4280890657
297.13272 -37.061378 822.76923 4281546787
297.6926 -37.13303 822.65881 4281153314
297.99142 -37.054054 822.54816 4281547811
298.55862 -37.129269 822.45178 4281351717
298.87604 -37.050713 822.38531 4281877031
299.47141 -37.123241 822.36969 4281812008
299.79495 -37.035946 822.31848 4281813032
300.37967 -37.116703 822.27594 4281681961
300.70627 -37.040287 822.21515 4282141483
301.25262 -37.123886 822.07257 4281944872
301.53918 -37.026817 821.91266 4281945639
302.07059 -37.09296 821.73035 4282276391
302.35114 -37.012665 821.55316 4282077736
302.89252 -37.079899 821.39221 4282145062
303.19119 -36.995003 821.27399 4282275371
303.77795 -37.073898 821.23199 4282738224
304.12936 -36.996323 821.26562 4282407211
304.7851 -37.078342 821.39996 4282999342
305.14267 -37.001507 821.45648 4282869296
305.78604 -37.076298 821.55414 4282476334
306.12527 -37.007885 821.56842 4282541102
306.72369 -37.086975 821.54303 4282345773
307.00595 -37.002735 821.40735 4282739505
307.55856 -37.077461 821.25513 4282151472
307.81802 -36.991451 821.05725 4282807604
308.35214 -37.063457 820.88306 4282546997
308.63348 -36.97205 820.71741 4283596858
309.20328 -37.041534 820.61206 4282943802
309.51999 -36.967617 820.56873 4283532599
310.13998 -37.051262 820.62518 4283074613
310.49741 -36.97517 820.66962 4284190266
311.12839 -37.057983 820.76917 4283078458
311.50879 -36.979206 820.85858 4283601979
312.12589 -37.062954 820.92224 4282751290
312.4635 -36.983322 820.89734 4284980290
313.02563 -37.059635 820.81122 4284064831
313.31735 -36.972736 820.68115 4285245250
313.88309 -37.058838 820.60364 4284133955
314.15146 -36.963024 820.39575 4286298186
314.6893 -37.037178 820.24792 4284073035
315.51425 -37.022469 819.94019 4284724795
316.38657 -37.016491 819.75806 4287221823
322.23376 -36.942719 819.42816 4294967183
323.84003 -37.010815 819.60284 4294967201
324.82208 -37.015778 819.65857 4294967223
325.16019 -36.929878 819.59637 4294967218
325.7471 -37.013882 819.61694 4294967217
326.05219 -36.924911 819.49683 4294967219
326.61252 -37.0051 819.41815 4294967230
327.37888 -36.98671 818.97046 4294967221
328.19675 -36.970722 818.66016 4294967232
329.15848 -36.974289 818.70795 4294967220
330.20541 -36.981014 818.96881 4294967222
331.18509 -36.985088 819.06567 4294377390
332.07199 -36.985977 818.92584 4292476828
332.92651 -36.977959 818.70654 4291035021
333.24939 -36.889732 818.6778 4289331071
333.80948 -36.968681 818.55634 4289984891
334.13556 -36.878399 818.50537 4287487339
334.70282 -36.959351 818.44025 4286432867
335.04895 -36.878651 818.43488 4285313378
335.65332 -36.957546 818.44025 4284720737
336.01233 -36.880024 818.48785 4285111397
336.62872 -36.964668 818.52283 4283208282
337.00272 -36.885651 818.57788 4284058709
337.60278 -36.966808 818.59979 4283074893
337.94858 -36.884937 818.57916 4283662924
338.51138 -36.964436 818.50928 4282809931
338.84082 -36.882366 818.45038 4283462733
339.3956 -36.956474 818.36084 4281692487
339.71225 -36.873726 818.28461 4282081858
340.27344 -36.946785 818.19781 4280704316
340.59396 -36.872555 818.15015 4281750333
341.1778 -36.943497 818.10608 4281422137
341.51382 -36.865704 818.08734 4281813304
342.09344 -36.941013 818.04272 4281354295
342.43805 -36.860573 818.03558 4281812279
343.02975 -36.93737 818.02887 4281156918
343.38293 -36.860199 818.03473 4280958769
343.96951 -36.940098 818.02332 4280631087
344.31943 -36.858376 818.01392 4280432941
344.89423 -36.937393 817.97229 4280368173
345.23898 -36.861008 817.95367 4280300844
345.79944 -36.936672 817.8764 4280300586
346.13217 -36.852501 817.8374 4280168234
346.6973 -36.924294 817.76379 4280102696
347.02902 -36.844475 817.73022 4280102183
347.60306 -36.921921 817.67706 4279971621
347.94147 -36.845695 817.65906 4279839523
348.5224 -36.923382 817.62292 4279708448
348.86887 -36.843975 817.62299 4279576351
349.45346 -36.920673 817.59631 4279773727
349.79553 -36.842041 817.58643 4279707166
350.37222 -36.916962 817.54236 4279772702
350.7045 -36.837036 817.50867 4279706397
351.27295 -36.912834 817.44562 4279640859
351.58826 -36.832237 817.37329 4279509275
352.14703 -36.904324 817.28668 4279575067
352.45728 -36.821667 817.20343 4279640347
353.02762 -36.89904 817.14349 4279574555
353.34949 -36.818989 817.08691 4279639835
353.92542 -36.892509 817.0415 4279442970
354.26828 -36.817848 817.03302 4279442713
354.85867 -36.894188 817.02094 4279442456
355.20221 -36.813354 817.01459 4279376406
355.79349 -36.893097 817.00427 4279310871
356.11798 -36.811817 816.95343 4279310614
356.70743 -36.891552 816.93945 4279113750
357.06628 -36.818604 816.95728 4279112981
357.65643 -36.891903 816.95404 4279046931
358.03174 -36.807667 816.99213 4279046673
358.62378 -36.881363 817.01538 4278915343
358.98566 -36.81773 817.04675 4278849293
359.58826 -36.909458 817.065 4278783499
359.94257 -36.829197 817.07855 4278652171
360.5267 -36.893559 817.05304 4278651914
360.87137 -36.802143 817.04852 4278651657
361.50476 -36.900455 817.12854 4278585864
361.88046 -36.825035 817.17273 4278520071
362.93939 -36.817692 817.38416 4278454022
47.471001 -36.956886 830.66608 4278585093
47.894524 -36.926819 830.24939 4278652937
48.316818 -36.918468 829.55511 4279573268
48.744576 -36.867573 828.96185 4280363809
49.164169 -36.86982 828.30731 4281088810
49.607338 -36.822414 827.83984 4281747506
50.042488 -36.834583 827.45825 4282471483
50.489246 -36.799198 827.15814 4282083912
50.932255 -36.821426 826.91632 4284516452
51.382652 -36.784412 826.71802 4288137617
51.831303 -36.801991 826.5766 4292673477
52.285248 -36.768753 826.46143 4294967236
52.737339 -36.791683 826.3739 4294967267
53.198826 -36.75687 826.24847 4294967290
53.65554 -36.784046 826.17987 4294967295
54.11047 -36.748966 825.99432 4293328839
54.566654 -36.768898 825.86005 4287802770
55.027336 -36.741829 825.8111 4283861870
55.476089 -36.749355 825.4845 4284841055
71.463997 -37.219749 835.65356 4279435264
72.114517 -36.897888 829.74017 4278257668
72.400955 -36.866032 828.16248 4278848518
72.89637 -36.84824 828.32495 4279114254
73.367355 -36.85989 827.96997 4280495132
74.246704 -36.871784 828.00281 4283719743
75.153267 -36.850838 827.73792 4282735679
75.598854 -36.814201 827.492 4281692239
76.021591 -36.833302 827.16681 4286741581
76.465385 -36.79747 826.90656 4280811408
76.896652 -36.811169 826.67291 4294967295
77.350639 -36.773964 826.48413 4294967295
77.794525 -36.806175 826.4259 4294967295
78.279762 -36.77824 826.49469 4294967295
78.750961 -36.796963 826.60504 4294967295
79.252991 -36.773602 826.83459 4278248865
79.734131 -36.811443 827.09027 4285229393
80.232964 -36.791763 827.24744 4281291837
80.699776 -36.832699 827.42261 4281351213
81.197021 -36.813377 827.58185 4280170794
130.63527 -36.753071 825.245 4279967765
131.15495 -36.732395 825.40033 4280364060
131.68675 -36.764259 825.51965 4281482017
132.23297 -36.779713 826.30682 4282143273
133.33202 -36.842133 827.40265 4278236769
133.79802 -36.8825 827.64197 4294963200
134.26561 -36.841282 827.52002 4294967295
134.65485 -36.865356 827.37231 4294967295
135.12001 -36.817352 827.14343 4294967295
135.52812 -36.83514 826.98126 4294967295
136.00833 -36.818878 826.8905 4294967295
136.47543 -36.83543 826.88708 4294967295
136.99872 -36.815598 827.03674 4278255604
137.45337 -36.84882 827.08258 4283852619
137.96756 -36.825462 827.185 4279191859
138.12737 -36.844872 827.28821 4281217831
138.87796 -36.820072 827.28021 4279774754
293.20288 -36.741131 823.53485 4279375627
293.76999 -36.707741 823.50836 4279441930
294.12549 -36.736633 823.46582 4279638541
294.66461 -36.716145 823.47333 4279835917
295.06671 -36.723972 823.45337 4279901712
295.54346 -36.709812 823.33838 4279901712
295.9704 -36.730991 823.34229 4280033299
296.43518 -36.697193 823.13519 4280296467
296.81534 -36.723572 823.07507 4280296725
297.33188 -36.683109 822.97321 4280493847
297.64374 -36.707493 822.75702 4280559896
298.15286 -36.670155 822.62872 4280691993
298.85648 -36.636177 822.01599 4280824092
299.66333 -36.63649 821.68256 4281284640
300.22058 -36.678249 822.0639 4281088032
300.76309 -36.657402 822.05573 4281153826
301.15414 -36.678627 822.0343 4281285410
301.68594 -36.639042 821.97333 4281482785
302.0152 -36.662655 821.81024 4281549090
302.48456 -36.631962 821.61011 4281680677
302.82236 -36.643478 821.43781 4281681190
303.32504 -36.605568 821.29602 4281747239
303.6962 -36.648243 821.24921 4281813029
304.27277 -36.610424 821.30817 4281944101
304.71503 -36.62928 821.45563 4282403880
305.31393 -36.620243 821.57172 4282798887
305.76251 -36.65974 821.68542 4282273319
306.31451 -36.632179 821.72504 4282340394
306.6951 -36.668667 821.70868 4282405418
307.18674 -36.613605 821.52936 4282539051
307.51566 -36.629871 821.38092 4282472746
307.98038 -36.611729 821.12653 4282738221
308.30075 -36.635933 820.95996 4282736683
308.78519 -36.587154 820.75885 4283198767
309.13171 -36.602428 820.65918 4283330607
309.66858 -36.578899 820.60114 4283527211
310.08206 -36.62431 820.67493 4283658542
310.65067 -36.589581 820.70703 4283857199
311.06018 -36.623798 820.79657 4283398189
311.65549 -36.596378 820.90527 4283464751
312.06546 -36.631977 820.96204 4283332142
312.60992 -36.602676 820.94769 4283858225
312.97861 -36.624355 820.88666 4284185652
313.47302 -36.59248 820.74615 4284974383
313.83435 -36.623219 820.64386 4284515126
314.30606 -36.583435 820.45618 4284121898
314.63986 -36.604004 820.30402 4284056627
315.14246 -36.573021 820.2049 4284319530
315.52997 -36.604942 820.20264 4284383535
316.07666 -36.570263 820.18158 4284911655
317.14993 -36.584122 820.51697 4285767207
318.28439 -36.609371 821.01532 4286949684
319.27408 -36.614334 821.13287 4287477811
323.34219 -36.551697 819.61127 4292542324
324.3851 -36.563095 819.79779 4294967180
325.35727 -36.557499 819.85474 4294770590
325.71964 -36.588436 819.72296 4294901654
326.22983 -36.55648 819.67346 4294967216
327.04636 -36.538685 819.36414 4294967225
327.81683 -36.517467 818.89691 4294967240
328.73413 -36.510609 818.83093 4294967236
329.71817 -36.522297 818.93384 4294967249
330.71176 -36.526058 819.06543 4294967259
333.26453 -36.497021 818.42523 4293853127
334.15253 -36.48708 818.25421 4291297180
335.09991 -36.489204 818.26483 4288478860
335.50748 -36.526203 818.32373 4288409987
336.09814 -36.49086 818.41467 4287884172
336.50308 -36.529873 818.46027 4287554172
337.1073 -36.501724 818.54785 4287487355
337.48819 -36.534626 818.56482 4287616370
338.03983 -36.500534 818.52478 4288402807
338.3866 -36.539825 818.44928 4288007801
338.9115 -36.494923 818.35437 4287086190
339.24362 -36.527153 818.24951 4285771619
339.75449 -36.485695 818.13696 4284982103
340.0704 -36.512356 818.05084 4284650327
340.62775 -36.479595 818.0094 4284055885
341.03156 -36.507618 817.98315 4284182606
341.56836 -36.477165 817.97479 4283525697
341.96881 -36.501442 817.94739 4283589186
342.52231 -36.472408 817.96429 4283392572
342.92422 -36.501152 817.97858 4283128896
343.4754 -36.476624 817.98126 4282406970
343.86227 -36.500519 817.96912 4282208573
344.40659 -36.470051 817.94678 4281749817
344.76825 -36.506626 817.90485 4281748796
345.31525 -36.471924 817.86755 4281944891
345.66739 -36.50058 817.78979 4281680700
346.19742 -36.464264 817.72479 4281285938
346.55185 -36.487263 817.64734 4281089077
347.08344 -36.455246 817.59259 4280957484
347.44827 -36.485329 817.53943 4280892207
347.98694 -36.454712 817.50098 4281023783
348.35873 -36.485443 817.46539 4280694828
348.90775 -36.450859 817.4425 4280497959
349.28293 -36.47868 817.42371 4280496937
349.83847 -36.448345 817.40839 4280234019
350.20767 -36.48037 817.38348 4280364838
350.76358 -36.444782 817.36188 4280364835
351.12946 -36.476948 817.33673 4280232996
351.67514 -36.443058 817.29102 4280232994
352.02872 -36.470734 817.23706 4280101410
352.56775 -36.437675 817.17651 4280101151
352.92816 -36.469296 817.13916 4280100897
353.47467 -36.431671 817.09546 4280035360
353.8334 -36.461823 817.05444 4279838239
354.38986 -36.430973 817.03278 4279837982
354.755 -36.462662 817.00739 4279772188
355.31909 -36.427322 817.00256 4279706395
355.68683 -36.461761 816.98499 4279706139
356.23691 -36.431675 816.948 4279706140
356.60318 -36.461319 816.92798 4279574555
357.17743 -36.426357 816.94421 4279573786
357.55408 -36.456371 816.93964 4279507481
358.13367 -36.426594 816.97675 4279375894
358.51617 -36.453045 816.97766 4279309844
359.09192 -36.429466 817.0127 4279178514
359.48093 -36.455956 817.02087 4279112465
360.05283 -36.434021 817.05255 4279046672
360.43677 -36.452812 817.0498 4278915342
361.04742 -36.427719 817.15894 4278915086
361.45761 -36.460964 817.28589 4278849036
362.11661 -36.442116 817.49048 4278717450
362.69617 -36.500717 817.87421 4278717193
363.33429 -36.478653 818.07538 4278651401
363.82938 -36.496113 818.28357 4278651144
364.44263 -36.488949 818.41882 4278585607
364.845 -36.511543 818.44861 4278519814
365.46127 -36.478764 818.53424 4278519557
47.027996 -36.4921 832.82178 4278387973
47.461594 -36.48074 830.85651 4278585604
47.843765 -36.387562 830.40106 4278849547
48.315304 -36.425823 829.50732 4279770644
48.682438 -36.319126 828.91498 4280495649
49.166424 -36.374012 828.24512 4281285932
49.54665 -36.276314 827.81787 4281813557
50.041565 -36.343388 827.43909 4282668854
50.429443 -36.252739 827.1568 4282017863
50.930653 -36.328999 826.91864 4284650591
51.323967 -36.239197 826.73047 4289055383
51.828728 -36.31448 826.58496 4292607930
52.226887 -36.227375 826.47186 4294967258
52.742683 -36.30518 826.37433 4294967295
53.139874 -36.216534 826.24988 4294967295
53.657295 -36.29364 826.16992 4294967295
54.052387 -36.201302 825.97839 4292018105
54.567036 -36.276627 825.84546 4287212401
54.972706 -36.193756 825.78595 4284318058
55.477222 -36.259308 825.46832 4284840540
71.248718 -36.992096 843.1297 4280105505
71.56868 -36.671883 835.88403 4280684288
72.409103 -36.345261 828.09491 4278914565
72.806702 -36.29343 828.12543 4279376401
73.436058 -36.373112 828.13354 4280693022
73.755043 -36.304058 828.3252 4282468657
74.28154 -36.384407 828.24207 4283981127
74.671577 -36.293583 828.18616 4283653957
75.199066 -36.369423 828.05145 4282604091
75.548103 -36.27573 827.66602 4282606928
76.047226 -36.349361 827.34296 4288454196
76.404892 -36.249966 826.93518 4289658801
76.901047 -36.320946 826.69104 4294967295
77.28537 -36.229725 826.5166 4294967295
77.804649 -36.317116 826.45166 4294967295
78.2136 -36.229195 826.5119 4294967295
78.760307 -36.303551 826.61841 4293590955
79.180786 -36.225395 826.81427 4281506709
79.744957 -36.319038 827.06848 4285296449
80.153305 -36.24522 827.19769 4281355067
80.711304 -36.336998 827.36835 4281418284
81.099396 -36.271866 827.51514 4280366379
130.61841 -36.263977 825.09741 4280033555
131.06108 -36.187588 825.38477 4280626203
131.72212 -36.273605 825.51373 4281613343
132.1516 -36.23801 826.383 4282338602
133.25348 -36.293411 827.44629 4282090841
133.84451 -36.387459 827.7298 4283956992
134.2014 -36.28772 827.58667 4294967295
134.70132 -36.367859 827.41583 4294967295
135.05817 -36.27026 827.19 4294967295
135.569 -36.341103 826.99677 4294967295
135.94164 -36.270279 826.89624 4294967295
136.50854 -36.341511 826.89557 4278255615
136.90625 -36.264343 827.00769 4278222817
137.48216 -36.347145 827.0614 4284315211
137.42572 -36.26453 827.15906 4280238139
138.1687 -36.35146 827.30554 4281677094
296.39352 -36.157459 823.35486 4278981641
296.97882 -36.232994 823.30347 4279178761
297.31024 -36.15556 823.27582 4279310091
297.88791 -36.225899 823.20758 4279441931
298.18756 -36.15646 823.10858 4279507982
298.75626 -36.228111 823.02582 4279574286
299.07089 -36.136879 822.93964 4279771153
299.646 -36.216255 822.88092 4280034323
299.96002 -36.131203 822.78992 4280165653
300.50769 -36.202812 822.65918 4280035094
300.8186 -36.125668 822.53729 4280297496
301.35327 -36.217251 822.36084 4280297752
301.67108 -36.124378 822.28595 4280626202
302.18912 -36.180634 822.06598 4280561180
302.52493 -36.100338 821.99896 4281086494
303.32446 -36.087971 821.64636 4281284129
304.28006 -36.084927 821.69147 4281481505
305.3511 -36.094215 822.02429 4281482529
305.99805 -36.177311 822.0802 4281548323
306.3652 -36.105659 822.21362 4281942310
307.16858 -36.093624 821.83881 4282010152
307.91351 -36.071423 821.30786 4282142760
308.43365 -36.139889 821.0957 4282405417
308.70828 -36.050316 820.91193 4282406184
309.58124 -36.046906 820.72437 4282669351
310.55215 -36.054382 820.79889 4282801192
311.17639 -36.131207 820.89087 4282999338
311.57425 -36.055214 821.01385 4282866730
312.18063 -36.123199 821.02234 4282737452
312.52118 -36.06197 821.04053 4282735915
313.12094 -36.132488 821.01929 4282475305
313.40897 -36.052967 820.89343 4283197998
313.95126 -36.135117 820.78088 4283133489
314.23474 -36.043755 820.59613 4282935855
314.76639 -36.11676 820.42816 4282674994
315.07101 -36.030132 820.29694 4283198770
315.65082 -36.10078 820.26465 4283003438
315.99789 -36.024284 820.25336 4283396652
316.62613 -36.115162 820.34576 4283004718
317.04453 -36.038834 820.51831 4284119090
317.6727 -36.113697 820.62189 4282940466
318.08768 -36.04792 820.77454 4284513077
318.74725 -36.13895 820.90485 4283728181
319.66959 -36.138741 820.94415 4283074609
320.42068 -36.119228 820.44983 4283998010
321.19397 -36.099873 820.01678 4285246274
322.34064 -36.025154 819.70074 4287214923
323.94141 -36.188046 819.8479 4288206414
324.91397 -36.099724 819.91156 4289650772
325.26694 -36.012653 819.85321 4290374239
325.84885 -36.095623 819.88092 4290772067
326.1597 -36.004433 819.7439 4290969447
326.70578 -36.086288 819.6604 4291559271
327.44305 -36.058372 819.14429 4293459822
328.23459 -36.04734 818.76654 4294967160
329.22351 -36.055393 818.88574 4294967180
330.30466 -36.068752 819.23309 4294967199
331.24905 -36.064274 819.2373 4294967224
332.17502 -36.068008 819.19305 4294967230
335.59195 -36.028465 818.32654 4293590937
336.62091 -36.035698 818.5451 4292542361
336.9931 -35.958771 818.59644 4291690387
337.591 -36.040813 818.61505 4292542355
337.91028 -35.955067 818.53448 4292673431
338.43762 -36.038475 818.4353 4292607901
338.75815 -35.954956 818.30365 4292083608
339.26965 -36.026573 818.15973 4290772879
339.58023 -35.943493 818.02075 4289656709
340.10913 -36.011719 817.90515 4289324935
340.45212 -35.93951 817.86621 4288333431
341.02295 -36.010544 817.84821 4287472226
341.38214 -35.938976 817.84546 4287010399
341.97672 -36.008518 817.83203 4286550617
