x y z rgb
-101.22124 -16.259649 821.78333 4279568642
-100.74267 -16.299515 821.99664 4279568386
-100.34461 -16.269571 822.19165 4279502850
-99.868126 -16.306364 822.42322 4279437058
-99.472794 -16.277912 822.64594 4279371522
-98.999565 -16.31884 822.9071 4279305986
-98.607986 -16.289083 823.16791 4279240450
-98.138855 -16.328085 823.46893 4279174658
-97.75087 -16.301229 823.76709 4279109122
-97.285179 -16.34174 824.09961 4278978050
-96.898872 -16.31329 824.41974 4278977794
-96.430748 -16.354408 824.7337 4278912258
-96.044586 -16.325445 825.06165 4278846721
-95.572472 -16.368149 825.34418 4278846721
-95.172478 -16.338373 825.6073 4278781185
-94.705872 -16.377913 825.88617 4278781185
-94.324417 -16.348047 826.11646 4278715394
-93.820457 -16.398457 826.28253 4278649858
-93.408684 -16.356133 826.41229 4278584322
-92.917549 -16.393267 826.51703 4278518529
-11.685224 -16.372795 827.16467 4279111690
-11.207521 -16.40127 827.03009 4279309326
-10.755149 -16.382812 826.95312 4279440653
-10.277538 -16.406942 826.86493 4279440911
-9.8242159 -16.365217 826.72223 4279375373
-9.3480511 -16.399593 826.64758 4279375375
-8.8903627 -16.362518 826.58026 4279507217
-8.4196453 -16.387247 826.49884 4279704596
-7.9566321 -16.335707 826.42029 4279836181
-7.4913712 -16.370401 826.33551 4279770902
-7.0243816 -16.343571 826.29956 4279771158
-6.5636339 -16.38356 826.23322 4279902488
-6.0974674 -16.346575 826.21564 4280165656
-5.627389 -16.394838 826.20319 4280165657
-5.1705036 -16.364115 826.23059 4280296728
-4.6918769 -16.379118 826.2572 4280230938
-4.2434855 -16.339249 826.28387 4280100122
-3.7785406 -16.371204 826.28632 4280034330
-3.3153567 -16.340521 826.29736 4280231194
-2.8594334 -16.379082 826.30359 4280296731
-2.389585 -16.349411 826.27838 4280296472
-1.9323816 -16.388424 826.2619 4280296985
-1.4611806 -16.344543 826.26312 4280363033
-1.0064688 -16.377642 826.25739 4280297498
-0.5340063 -16.341785 826.26093 4280231705
-0.079612985 -16.386549 826.26923 4280363291
0.39310181 -16.345469 826.26874 4280560668
0.84769696 -16.385946 826.30286 4280560412
1.3189051 -16.352226 826.22192 4280691995
1.7805575 -16.383791 826.19275 4280823583
2.2429845 -16.340382 826.09656 4280889373
2.7128575 -16.37104 826.00702 4280955170
3.1702938 -16.338846 825.93951 4281087266
3.6442678 -16.368038 825.86523 4281153315
4.0973077 -16.339912 825.81677 4281415972
4.5694637 -16.379095 825.86987 4281218852
5.0238595 -16.340946 825.88165 4281218850
5.4895182 -16.373331 825.9704 4280824865
5.9085617 -16.339088 825.98785 4280561951
6.4052629 -16.378826 826.03387 4280561696
6.7585979 -16.375605 826.06921 4280627744
26.443289 -16.420893 829.93286 4279375886
26.915375 -16.459002 830.0542 4279572752
27.382366 -16.402563 830.17767 4279704335
27.853033 -16.453226 830.2511 4279704850
28.320461 -16.431236 830.36273 4279836693
28.788107 -16.467567 830.39874 4279705364
29.254938 -16.428991 830.29584 4279705620
29.711136 -16.466671 830.18024 4279770901
30.181459 -16.423992 829.99323 4279771156
30.626406 -16.453363 829.75397 4279968024
31.098742 -16.408035 829.5155 4280231194
31.54141 -16.441002 829.30542 4280428574
32.015106 -16.398655 829.11053 4280494109
32.459881 -16.432941 828.96582 4280494880
32.932831 -16.394493 828.83435 4280495391
33.381824 -16.431566 828.74933 4280363806
33.854698 -16.394424 828.68036 4280429597
34.306744 -16.429916 828.65631 4280560672
34.782299 -16.392311 828.63287 4280691744
35.234268 -16.427242 828.64722 4280626209
35.713009 -16.389553 828.64423 4280494878
36.163319 -16.427748 828.65961 4280429086
36.641224 -16.389002 828.59973 4280363549
37.081463 -16.421249 828.43665 4280297501
37.554066 -16.37989 828.24298 4280231964
37.993343 -16.412077 828.06744 4280231965
38.453983 -16.384933 827.82123 4280101146
38.900463 -16.408552 827.64215 4280232479
44.354183 -16.421539 827.14801 4281417256
44.817738 -16.387333 827.19415 4281155360
45.793575 -16.40134 827.69635 4280825887
46.771294 -16.39426 828.13092 4281087518
47.18808 -16.448151 828.13062 4281021475
47.735825 -16.376743 828.19635 4281087009
48.195271 -16.410887 828.25519 4281020963
48.705654 -16.367445 828.25623 4281086754
49.150284 -16.415056 828.39343 4281152546
49.642639 -16.386356 828.3714 4281217827
50.102493 -16.410553 828.39093 4281086755
50.571083 -16.377234 828.36865 4281152804
51.028873 -16.417547 828.33942 4281086243
51.496033 -16.389463 828.28168 4281020449
51.948402 -16.414097 828.27441 4280954913
52.417465 -16.377502 828.2229 4280888865
52.875584 -16.411674 828.23553 4281020450
53.345776 -16.378756 828.20575 4280823586
53.801857 -16.413019 828.21826 4280758305
54.276764 -16.376307 828.23395 4280692256
54.736687 -16.409216 828.323 4280823329
55.218685 -16.378967 828.40802 4280626206
55.67569 -16.417294 828.49609 4280560926
56.16077 -16.385696 828.57074 4280692256
56.614475 -16.426281 828.62677 4280626720
57.097286 -16.391348 828.64447 4280626463
57.545788 -16.425524 828.63147 4280692255
58.023037 -16.386389 828.55322 4280758047
58.464546 -16.41781 828.45959 4280955169
58.936798 -16.379015 828.32233 4280955424
59.377899 -16.412777 828.18945 4280890145
59.847275 -16.375154 828.05127 4281021476
60.288918 -16.405632 827.93011 4281021732
60.759239 -16.369154 827.82373 4281087522
61.206249 -16.402464 827.75507 4281217827
61.679024 -16.368011 827.69495 4281218081
62.128571 -16.401869 827.67523 4281087010
62.604683 -16.367167 827.65588 4281284388
63.057354 -16.399771 827.65576 4281218597
63.533237 -16.366404 827.65057 4281152291
63.985626 -16.400482 827.65582 4281020706
64.462021 -16.367525 827.63593 4281020447
64.91024 -16.404045 827.64142 4280954400
65.389297 -16.368887 827.59595 4280691998
65.832443 -16.404957 827.58911 4280560669
66.313309 -16.36553 827.54431 4280691998
66.75399 -16.39711 827.51843 4280691742
67.235229 -16.357096 827.47919 4280757021
67.67411 -16.389034 827.41333 4280757278
68.153252 -16.361456 827.3761 4280691229
68.593819 -16.392599 827.28448 4280625949
69.054047 -16.362406 827.23608 4280691486
69.517296 -16.389811 827.20172 4280691486
69.961769 -16.368757 827.17273 4280757023
70.444687 -16.387781 827.17133 4280822815
70.907013 -16.360903 827.20374 4280888350
71.373322 -16.390793 827.17584 4280823070
71.851845 -16.364338 827.25189 4280888607
72.304306 -16.396143 827.21686 4280823071
72.780609 -16.363293 827.24701 4280691488
73.232201 -16.389235 827.23584 4280494366
73.721909 -16.348856 827.24414 4280363037
74.158195 -16.3936 827.2381 4280231194
74.647285 -16.362061 827.2099 4280099866
75.077988 -16.398962 827.15497 4279902487
75.563683 -16.355885 827.11572 4279639572
75.996635 -16.383604 827.04736 4279442194
76.477394 -16.343441 826.9856 4279441938
76.915298 -16.386244 826.93976 4279441426
77.395073 -16.353189 826.90375 4279506962
77.844139 -16.383896 826.93457 4279506963
78.32946 -16.361731 826.96991 4279375632
78.781303 -16.387718 827.01947 4279375634
79.266258 -16.36607 827.06604 4279310096
79.718124 -16.392426 827.10864 4279375633
80.204636 -16.351713 827.15869 4279309840
80.655716 -16.384789 827.19598 4279375633
81.139626 -16.354235 827.21478 4279375376
81.587425 -16.39068 827.21869 4279375633
82.069809 -16.357632 827.22144 4279310096
82.517731 -16.392328 827.23004 4279244303
83.001717 -16.358843 827.24414 4279178766
83.448242 -16.3922 827.24231 4279309840
83.930672 -16.358103 827.23956 4279178768
84.377792 -16.391911 827.24609 4279310096
84.860481 -16.356651 827.24139 4279441425
85.306435 -16.39043 827.23969 4279375633
85.787651 -16.358135 827.21625 4279309840
86.232201 -16.391748 827.20319 4279375632
86.711868 -16.356676 827.16425 4279375630
87.155487 -16.391237 827.14435 4279375632
87.633148 -16.3557 827.08435 4279309839
88.075867 -16.387482 827.06091 4279309840
88.552795 -16.351912 826.99286 4279310096
88.994583 -16.387087 826.96527 4279309839
89.471588 -16.350334 826.89349 4279244302
89.914513 -16.383026 826.87958 4279310095
90.395348 -16.349781 826.84204 4279310095
90.841156 -16.385199 826.85498 4279244303
91.325317 -16.35047 826.84546 4279179023
91.773788 -16.383848 826.88208 4279178767
92.259941 -16.349094 826.89142 4279113231
92.708931 -16.383495 826.93262 4279178767
93.195534 -16.349878 826.92749 4279179023
93.639084 -16.385105 826.9397 4279310096
94.12458 -16.349468 826.91913 4279376143
94.565041 -16.385151 826.91101 4279310352
95.050713 -16.350267 826.87909 4279310607
95.489319 -16.383549 826.86682 4279310352
95.9757 -16.345598 826.84418 4279310609
96.415688 -16.381926 826.84052 4279310352
96.9048 -16.347622 826.83142 4279310607
97.345383 -16.381281 826.84229 4279376144
97.836449 -16.347546 826.84479 4279442191
98.277672 -16.382568 826.86523 4279376145
98.768936 -16.346113 826.86786 4279310865
99.20977 -16.383152 826.88422 4279442193
99.701218 -16.348837 826.88165 4279507729
100.13994 -16.38311 826.88593 4279507730
100.62864 -16.347214 826.86029 4279441937
101.06477 -16.383808 826.84528 4279441937
101.55164 -16.346024 826.80463 4279310864
101.98536 -16.378061 826.771 4279310865
102.47175 -16.342941 826.71991 4279245328
102.90405 -16.380083 826.68335 4279376401
103.39223 -16.341484 826.64545 4279442191
103.82715 -16.374836 826.63239 4279442450
104.31947 -16.339046 826.62354 4279507986
104.75744 -16.37463 826.63623 4279376914
105.25402 -16.341284 826.66193 4279311376
105.6946 -16.379805 826.69415 4279376912
106.19158 -16.345133 826.71881 4279508240
106.62983 -16.379871 826.7356 4279639571
107.12453 -16.343452 826.73596 4279639571
107.55914 -16.378643 826.73108 4279639572
108.05114 -16.340805 826.70288 4279574290
108.48187 -16.376245 826.67303 4279508498
108.97292 -16.341299 826.63824 4279442961
109.40397 -16.377087 826.61462 4279574034
109.89699 -16.338058 826.59082 4279508753
110.33013 -16.373426 826.58551 4279509009
110.82668 -16.337742 826.5838 4279443729
111.26419 -16.372025 826.61517 4279443473
111.76398 -16.337366 826.63715 4279574801
112.203 -16.376804 826.6778 4279574802
112.70401 -16.342926 826.70569 4279640338
113.14188 -16.379852 826.7406 4279640083
113.64276 -16.344456 826.75165 4279509267
114.07314 -16.378496 826.74646 4279574803
114.57097 -16.336159 826.7179 4279640338
114.99612 -16.373079 826.69159 4279771412
115.49268 -16.336617 826.64929 4279837203
115.91624 -16.376713 826.61853 4279902997
116.41211 -16.33843 826.57526 4279902996
116.83816 -16.373161 826.55847 4279837460
117.33794 -16.334494 826.55029 4279903509
117.7694 -16.369688 826.5575 4279837972
118.27128 -16.334454 826.56396 4280100374
118.70374 -16.373159 826.58496 4280100375
119.20773 -16.33708 826.60449 4280034839
119.64128 -16.372665 826.62506 4280035350
120.14207 -16.335243 826.62799 4280232728
120.57388 -16.371899 826.6333 4280298522
121.07276 -16.33753 826.62085 4280560924
121.50327 -16.373407 826.61041 4280495645
122.00013 -16.337114 826.57532 4280561437
122.42682 -16.371183 826.56073 4280364572
122.92506 -16.329586 826.53101 4280233500
123.34928 -16.365808 826.50787 4280233498
123.84888 -16.331966 826.48608 4280430363
124.27274 -16.368744 826.46442 4280561693
124.77587 -16.331142 826.46747 4280561949
125.20457 -16.366207 826.46539 4280562206
125.70951 -16.33024 826.47729 4280693536
126.14194 -16.367842 826.49902 4280758817
126.64828 -16.333612 826.51965 4280693281
127.08044 -16.368557 826.53644 4280825121
127.58398 -16.331436 826.54797 4281022241
128.01093 -16.365925 826.53107 4280825633
128.51019 -16.330519 826.50934 4280891170
128.93195 -16.364748 826.46405 4280891168
129.42694 -16.329813 826.4176 4280825889
129.85042 -16.364265 826.38416 4280825889
130.34428 -16.325527 826.3324 4281022755
130.76932 -16.358862 826.31207 4280891681
131.26921 -16.326454 826.29742 4281088034
131.70102 -16.36269 826.31281 4281153571
132.20457 -16.327055 826.32654 4281088290
132.63863 -16.36087 826.35278 4281088546
133.14349 -16.326443 826.36603 4281089059
133.57663 -16.362047 826.39282 4281155106
134.08084 -16.327452 826.39294 4281286435
134.50867 -16.363659 826.39014 4281088802
135.00987 -16.3286 826.36786 4281088035
135.43428 -16.359728 826.34357 4281219363
135.93224 -16.322199 826.3092 4281022753
136.35703 -16.357073 826.28711 4281153569
136.85524 -16.324749 826.25653 4281153825
137.28163 -16.359009 826.2486 4281154082
137.78252 -16.322811 826.23596 4281153827
138.21298 -16.356859 826.24658 4281285156
138.72116 -16.325552 826.27869 4281416485
139.15565 -16.35857 826.31421 4281481764
139.66551 -16.323498 826.35217 4281547556
140.10339 -16.358561 826.40363 4281415972
140.61545 -16.326075 826.45093 4281284644
141.05025 -16.360603 826.49164 4281415972
141.55692 -16.326593 826.49945 4281350435
141.98364 -16.36142 826.49249 4281350690
142.48436 -16.326088 826.46918 4281613092
142.90492 -16.358877 826.42957 4281810475
143.39662 -16.324129 826.35724 4282007857
143.813 -16.356083 826.29462 4282073648
144.30579 -16.321104 826.22894 4281942319
144.7276 -16.35487 826.19476 4282008881
145.22575 -16.320992 826.16284 4282074673
145.65384 -16.353016 826.16119 4282074159
146.16039 -16.31921 826.17609 4281941806
146.59471 -16.352585 826.21039 4282007854
147.10339 -16.320705 826.23315 4282139950
147.53632 -16.355091 826.2619 4281943086
148.04303 -16.32144 826.27008 4282008623
148.47015 -16.355524 826.2691 4282008368
148.97284 -16.321754 826.25171 4281876271
149.39557 -16.353104 826.229 4281809707
149.8965 -16.318693 826.19989 4281679403
150.31956 -16.351538 826.18005 4281810475
150.82269 -16.31736 826.16321 4281941290
151.24683 -16.350628 826.15729 4281875244
151.75507 -16.317684 826.16345 4281744427
152.18353 -16.351776 826.17603 4281678635
152.69463 -16.318741 826.19965 4281744169
153.12332 -16.352064 826.21649 4281612841
153.63312 -16.318371 826.2301 4281547050
154.06017 -16.351965 826.23285 4281809708
154.56688 -16.318577 826.23236 4281941804
154.98888 -16.352024 826.21472 4282007598
155.49217 -16.319513 826.19031 4281877039
155.91089 -16.353012 826.15552 4282139184
156.4136 -16.317001 826.12421 4282139697
156.8326 -16.349253 826.09827 4282336308
157.33856 -16.314987 826.07953 4282270259
157.76187 -16.348101 826.07538 4282138930
158.27223 -16.313271 826.07965 4282007601
158.70073 -16.346828 826.10602 4282072624
159.21405 -16.313908 826.12769 4281942060
159.6445 -16.348736 826.16107 4282073904
160.15643 -16.316973 826.17279 4282205749
160.58371 -16.351984 826.19116 4282140210
161.09352 -16.317503 826.19122 4282205746
161.51886 -16.349672 826.19666 4282074162
162.02533 -16.31447 826.17688 4282139956
162.44839 -16.346905 826.17529 4282204981
162.95486 -16.31316 826.15314 4282007855
163.37642 -16.34782 826.15057 4282008368
163.88419 -16.313541 826.12946 4281877808
164.30504 -16.347178 826.12573 4282009392
164.8143 -16.313599 826.11249 4282141236
165.23755 -16.347841 826.12195 4282271283
165.74983 -16.312956 826.12146 4281877296
166.1752 -16.346104 826.13922 4282008367
166.6891 -16.312853 826.14514 4281943090
167.11224 -16.346409 826.15503 4282009137
167.62904 -16.311932 826.17249 4282074417
168.05215 -16.34528 826.18341 4282271541
168.56616 -16.309948 826.18481 4282533938
168.9879 -16.348093 826.18945 4282336300
169.50043 -16.320593 826.18408 4282138923
169.92093 -16.354071 826.1864 4282663471
170.43181 -16.31251 826.1701 4282599473
170.84572 -16.342249 826.13953 4282601525
171.35693 -16.30901 826.12622 4282536503
171.77461 -16.343714 826.11298 4282471223
172.28786 -16.310644 826.10901 4282865466
172.70857 -16.344761 826.11176 4282864697
173.22484 -16.310995 826.12054 4282667835
173.6501 -16.345819 826.1463 4282733628
174.16934 -16.311798 826.16357 4282996284
174.58989 -16.345024 826.17102 4282930749
175.10744 -16.310417 826.17584 4282865470
175.52483 -16.344992 826.17065 4282602555
176.03966 -16.309921 826.1601 4282471229
176.45517 -16.343338 826.15002 4282733628
176.96899 -16.309429 826.13434 4283062078
177.386 -16.343971 826.12952 4282799675
177.90132 -16.30862 826.12244 4282537275
178.31917 -16.341818 826.12085 4282668604
178.836 -16.308357 826.12207 4282735423
179.25618 -16.342951 826.1297 4282866752
179.77464 -16.30961 826.13721 4282932292
180.19632 -16.343794 826.15466 4283063875
180.71622 -16.309189 826.16547 4283129923
181.13789 -16.343302 826.18201 4283195714
181.65497 -16.309198 826.17987 4283393350
182.07349 -16.343481 826.18079 4283064897
182.58688 -16.309978 826.16241 4283524423
183.00175 -16.342346 826.1449 4283589190
183.5127 -16.306189 826.11609 4283457603
183.92667 -16.339083 826.09747 4283457862
184.44022 -16.30619 826.07776 4283064133
184.8577 -16.340281 826.07928 4282932289
185.37694 -16.305927 826.08203 4282933058
185.7972 -16.340137 826.1015 4283195200
186.32146 -16.305758 826.12238 4283523907
186.74335 -16.340149 826.14911 4283720776
187.26819 -16.307091 826.17139 4283458633
187.69003 -16.341768 826.19421 4283590729
188.21008 -16.307526 826.19495 4283525450
188.62663 -16.341183 826.1933 4283393606
189.13727 -16.306904 826.15411 4283721545
189.5477 -16.340836 826.12927 4283852364
190.05713 -16.305445 826.08167 4283720775
190.46283 -16.338425 826.03918 4283393350
190.97342 -16.302492 825.99597 4283130691
191.38657 -16.333807 825.987 4282868285
191.90877 -16.299335 825.99438 4282277689
192.33435 -16.33622 826.03754 4282539834
192.86688 -16.305309 826.08801 4282408761
193.29982 -16.340155 826.1629 4282539061
193.83975 -16.304993 826.24005 4282736183
194.27002 -16.338928 826.30328 4282867511
194.80362 -16.307377 826.34924 4282538806
195.22049 -16.342665 826.36108 4282473012
195.7412 -16.307028 826.34784 4282210867
196.14725 -16.342293 826.31763 4282210611
196.66225 -16.307274 826.27911 4282407735
197.0685 -16.339088 826.25024 4282341431
197.58614 -16.301846 826.22461 4282275383
197.99719 -16.334665 826.21466 4282668855
198.52298 -16.302996 826.22345 4282865971
198.94278 -16.340582 826.25122 4283129147
199.47128 -16.305986 826.27002 4283457084
199.88737 -16.339149 826.28485 4283654212
200.41283 -16.30443 826.2865 4283654218
200.82762 -16.338352 826.29865 4283391561
201.35326 -16.302402 826.29791 4283128903
201.76523 -16.336927 826.29742 4282997573
202.2883 -16.303442 826.28693 4283062085
202.69884 -16.33922 826.27783 4282863680
203.22246 -16.305107 826.27142 4282600764
203.63353 -16.338064 826.26514 4282534971
204.15659 -16.303061 826.25702 4282338105
204.56718 -16.3377 826.24829 4282207034
205.09279 -16.302683 826.24951 4282075706
205.50848 -16.335978 826.26569 4282272825
206.04227 -16.301228 826.29529 4282404664
206.45927 -16.335451 826.31659 4282470457
206.9933 -16.302765 826.34723 4282733885
207.40952 -16.337093 826.36548 4282865470
207.94337 -16.30283 826.39294 4283324739
208.35695 -16.336773 826.40063 4283390277
208.88481 -16.30349 826.40393 4283257919
209.29401 -16.339354 826.39825 4283061308
209.8201 -16.304609 826.38928 4282864186
210.22679 -16.337257 826.37683 4282797883
210.75104 -16.300411 826.35858 4282863419
211.15587 -16.334402 826.33942 4282666554
211.68005 -16.300657 826.32306 4282732345
212.08698 -16.335751 826.31177 4282798392
212.61469 -16.301113 826.30585 4282995000
213.02718 -16.334949 826.31549 4282534968
213.55856 -16.29933 826.32568 4282337593
213.9738 -16.333597 826.34534 4282468665
214.50647 -16.299559 826.35773 4282468918
214.91911 -16.333544 826.36884 4282338102
215.44749 -16.299543 826.36688 4282272568
215.8551 -16.333897 826.35999 4282337848
216.37917 -16.298801 826.33752 4282534969
216.78362 -16.332432 826.32019 4282337848
217.30643 -16.29598 826.29071 4282401846
217.71216 -16.330091 826.28314 4282205494
218.24077 -16.295946 826.27063 4282205237
218.64923 -16.331783 826.27344 4282270773
219.18356 -16.297661 826.28381 4282008117
219.59604 -16.334259 826.30646 4281876789
220.13499 -16.299002 826.33014 4281679668
220.55138 -16.330755 826.36493 4281745460
221.09291 -16.294533 826.3985 4281679666
221.51031 -16.332932 826.44 4281548337
222.05371 -16.30538 826.47333 4281350705
222.46762 -16.347794 826.50031 4281678636
223.00735 -16.307951 826.52051 4281219884
223.41583 -16.334562 826.53027 4281483053
223.94748 -16.292879 826.51923 4281810990
224.34743 -16.326395 826.4967 4281943344
224.8761 -16.293585 826.47821 4282141238
225.27725 -16.329067 826.46063 4282271798
225.80862 -16.296402 826.4516 4282535735
226.21194 -16.331429 826.43903 4282208570
226.74652 -16.295935 826.44446 4282405435
227.15781 -16.330221 826.46155 4282603068
227.69504 -16.296711 826.47266 4282997570
228.10307 -16.331493 826.47839 4283063107
228.63736 -16.296612 826.47711 4283194697
229.04393 -16.331194 826.48053 4282932291
229.57837 -16.294847 826.47748 4282997572
229.9819 -16.329386 826.47089 4283062594
230.51303 -16.295952 826.45477 4283258947
230.91737 -16.332104 826.45184 4283324226
231.45145 -16.296934 826.44672 4283061823
231.85712 -16.330309 826.44928 4282996541
232.39206 -16.293451 826.44672 4283128640
232.80098 -16.328257 826.46167 4283260225
233.34207 -16.295174 826.47943 4283588420
233.75531 -16.33077 826.50812 4283194177
234.2997 -16.29497 826.53619 4283062591
234.71152 -16.328424 826.5603 4283587907
235.2552 -16.295065 826.58405 4283587906
235.66231 -16.332275 826.59241 4283719490
236.1965 -16.297567 826.58264 4283850049
236.59663 -16.329685 826.56769 4283652412
237.12369 -16.291609 826.53333 4283587640
237.51794 -16.324501 826.50024 4283588411
238.04465 -16.291454 826.46271 4284179265
238.44333 -16.330467 826.44586 4283982916
238.98412 -16.296173 826.45618 4283259199
239.3974 -16.330654 826.48358 4282470452
239.94847 -16.295204 826.53198 4282076976
240.37292 -16.325788 826.59399 4282404911
240.92928 -16.28982 826.66284 4282470957
241.35023 -16.324207 826.71301 4282142512
241.89471 -16.292606 826.7406 4282076720
242.29959 -16.329643 826.74188 4281946161
242.83517 -16.295267 826.73132 4282077746
243.22986 -16.328627 826.70422 4282012210
243.76198 -16.292074 826.67871 4282077747
244.15297 -16.325953 826.63861 4282471222
244.68697 -16.290705 826.62097 4282537529
245.08121 -16.32386 826.5907 4282669881
245.61697 -16.290049 826.58496 4282932283
246.01826 -16.327587 826.57776 4282734907
246.56015 -16.29534 826.58893 4282668858
246.96933 -16.328653 826.61078 4282471224
247.52304 -16.291531 826.65204 4282208307
247.93927 -16.327209 826.69843 4282470963
248.49631 -16.291588 826.74725 4282602543
248.90588 -16.32613 826.7713 4282207794
249.44771 -16.291815 826.76978 4282208049
249.84483 -16.324314 826.75684 4282142003
250.37209 -16.286882 826.70953 4282142770
250.76526 -16.323706 826.68085 4282143028
251.28989 -16.289097 826.63092 4282208049
251.69031 -16.324127 826.62378 4282273331
252.22997 -16.290361 826.62408 4282272817
252.64697 -16.322416 826.66705 4282469683
253.20505 -16.288071 826.72437 4282470194
253.62991 -16.325428 826.79773 4282470963
254.19385 -16.29026 826.86963 4282340143
254.61246 -16.325439 826.92224 4282077744
255.16827 -16.293074 826.96625 4282142002
255.57611 -16.326813 826.98541 4281878322
256.12241 -16.291193 827.00067 4281746224
256.52249 -16.326948 826.9942 4281746737
257.05951 -16.291746 826.97546 4281417771
257.45978 -16.324049 826.98047 4281088296
257.97546 -16.285784 826.88654 4280825125
258.3385 -16.331566 826.86243 4280955942
258.9064 -16.289909 826.84735 4280628774
259.1734 -16.351261 826.78754 4281088549
-119.9259 -15.770246 826.05042 4278452737
-119.32073 -15.780584 825.14478 4278584065
-118.80614 -15.845721 824.73816 4278715394
-118.22094 -15.760871 823.96631 4278846722
-117.68865 -15.826058 823.44843 4278912258
-117.14288 -15.744968 822.93109 4278912257
-116.62986 -15.808802 822.54492 4278977793
-116.1069 -15.730217 822.17645 4279043329
-115.6055 -15.797638 821.86743 4279108865
-115.09551 -15.725492 821.58264 4279174657
-114.6026 -15.790627 821.33014 4279174657
-114.10094 -15.714708 821.09967 4279240450
-113.61679 -15.778856 820.90869 4279306242
-113.12234 -15.702701 820.72662 4279371778
-112.64494 -15.77223 820.58173 4279502850
-112.15845 -15.701183 820.4516 4279634179
-111.68636 -15.768435 820.34448 4279765507
-111.20551 -15.698459 820.24988 4279765764
-110.73775 -15.768206 820.17682 4279831813
-110.25999 -15.697239 820.10126 4280094472
-109.79308 -15.766495 820.05328 4280291592
-109.31988 -15.698263 819.98999 4280488970
-108.84808 -15.765333 819.95587 4280817933
-108.38088 -15.69454 819.92102 4281015569
-107.90786 -15.760901 819.90521 4281344794
-107.45464 -15.69152 819.91248 4282330144
-106.9883 -15.756738 819.95526 4281607707
-106.54484 -15.687411 820.02655 4281146895
-106.09207 -15.758601 820.1333 4281277196
-105.65541 -15.695214 820.25958 4281014539
-105.21107 -15.768726 820.41351 4280751625
-104.77092 -15.703669 820.57739 4280488454
-104.33116 -15.776563 820.74658 4280356869
-103.88762 -15.70972 820.90784 4280094212
-103.44868 -15.783061 821.07837 4279831555
-103.00511 -15.715934 821.24957 4279700227
-102.56647 -15.790989 821.42902 4279699971
-102.12404 -15.724182 821.60803 4279568642
-101.6874 -15.796836 821.81079 4279503106
-101.24658 -15.732784 822.00562 4279502850
-100.81251 -15.808243 822.23267 4279502850
-100.37445 -15.740214 822.45148 4279437058
-99.942017 -15.815962 822.69818 4279437058
-99.507912 -15.753204 822.95081 4279371522
-99.078781 -15.829472 823.22882 4279305986
-98.649162 -15.762354 823.52448 4279240194
-98.22467 -15.837321 823.84656 4279109122
-97.799828 -15.776094 824.18658 4279043586
-97.376587 -15.854237 824.52875 4278978050
-96.950958 -15.789658 824.86713 4278912257
-96.521317 -15.86429 825.16461 4278846721
-96.09314 -15.802606 825.4812 4278846721
-95.657135 -15.880402 825.72797 4278781185
-95.218735 -15.804622 825.94971 4278715393
-94.779778 -15.887167 826.18048 4278649858
-94.326736 -15.831983 826.27655 4278649858
-93.874916 -15.891208 826.40375 4278584322
-93.420769 -15.826806 826.50116 4278518530
-8.5459223 -15.9267 826.70007 4279639060
-8.0043287 -15.82344 826.62366 4279639060
-7.5469451 -15.879117 826.60956 4279704853
-7.0756483 -15.822743 826.59503 4279573782
-6.5797853 -15.894803 826.52515 4279706135
-0.97980547 -15.87568 826.05267 4279903767
2.6156087 -15.894951 825.28516 4280103453
3.5238163 -15.921601 825.5285 4280760611
4.4374523 -15.904136 825.78192 4280301088
26.971006 -16.170956 831.84583 4278783750
27.390211 -15.930739 831.9436 4278849544
27.903622 -15.969224 831.88879 4279112457
28.319361 -15.935271 831.80048 4279244301
28.840322 -16.000443 831.72943 4279441938
29.240732 -15.931828 831.4292 4279835669
29.754244 -15.986738 831.08905 4279705110
30.152531 -15.903469 830.71655 4279639830
30.663002 -15.96156 830.32678 4279837465
31.063915 -15.883724 830.03192 4279969051
31.573242 -15.947433 829.75287 4280232223
31.978863 -15.87074 829.54242 4280429344
32.488098 -15.938104 829.36597 4280430114
32.896667 -15.864605 829.23193 4280495907
33.407871 -15.938555 829.13721 4280299811
33.820293 -15.866592 829.07483 4280364835
34.335293 -15.937091 829.05603 4280627749
34.748932 -15.862633 829.05426 4280889895
35.266933 -15.934764 829.08948 4280496420
35.680531 -15.861793 829.10107 4280364577
36.199398 -15.934515 829.13507 4280364320
36.607822 -15.862272 829.05975 4280298015
37.105232 -15.932573 828.87274 4280232221
37.526211 -15.851155 828.81732 4280100893
38.000378 -15.934407 828.60486 4280298268
38.433048 -15.84816 828.34314 4280167455
48.287022 -15.936253 829.05377 4280429595
48.673321 -15.86326 828.95416 4280494362
49.209236 -15.902697 828.94208 4280691227
49.607933 -15.847371 828.87006 4280560156
50.133793 -15.922759 828.82733 4280625949
50.536655 -15.846376 828.7782 4280625693
51.057518 -15.925878 828.73151 4280625180
51.460281 -15.861417 828.67365 4280428571
51.985626 -15.93059 828.68408 4280494108
52.391335 -15.852915 828.7099 4280494107
52.925983 -15.925363 828.82709 4280690716
53.337471 -15.859367 828.92346 4280494107
53.868122 -15.931009 829.09985 4280494108
54.280796 -15.860853 829.25085 4280362778
54.821915 -15.930182 829.45624 4280362522
55.234123 -15.869384 829.61053 4280034328
55.769199 -15.944818 829.69794 4279968790
56.169853 -15.875503 829.71851 4280034840
56.702801 -15.947973 829.69312 4280100889
57.098576 -15.876933 829.63062 4280166426
57.624817 -15.942244 829.52032 4280297755
58.013615 -15.866723 829.36401 4280428828
58.532928 -15.932448 829.1778 4280823070
58.920815 -15.856127 828.9884 4280560926
59.435577 -15.922675 828.80286 4280627232
59.825424 -15.848832 828.63654 4280758562
60.343712 -15.919961 828.49231 4280758562
60.736446 -15.846883 828.37695 4280823842
61.261623 -15.915881 828.31012 4280824097
61.6567 -15.842536 828.25476 4280758817
62.185905 -15.912608 828.24054 4281021219
62.583809 -15.84158 828.23114 4281350182
63.114307 -15.91252 828.24219 4281218856
63.51413 -15.841216 828.24426 4281283877
64.044548 -15.914375 828.25311 4280823841
64.442596 -15.843648 828.22821 4280560670
64.972504 -15.915986 828.2265 4280429339
65.363708 -15.846097 828.16229 4280166426
65.893143 -15.916197 828.11615 4280100889
66.279282 -15.841578 828.02502 4280100121
66.808342 -15.901236 827.95203 4280099863
67.193924 -15.833833 827.88049 4280165400
67.72084 -15.901783 827.77039 4280296728
68.10392 -15.835984 827.71472 4280165144
68.642807 -15.891882 827.61627 4280034328
69.024513 -15.823195 827.56854 4280034329
69.563263 -15.90174 827.53217 4280100121
69.953812 -15.836205 827.50317 4280231194
70.487015 -15.901604 827.48853 4280165913
70.888817 -15.820568 827.52606 4280165913
71.417366 -15.896355 827.48663 4280232219
71.821701 -15.832676 827.56311 4280297243
72.351219 -15.899892 827.52991 4280231965
72.751762 -15.823783 827.57495 4280362524
73.288475 -15.890397 827.58441 4280165914
73.686943 -15.819817 827.63837 4280165401
74.223495 -15.900046 827.64197 4280362266
74.603729 -15.837407 827.60559 4280493595
75.102913 -15.916282 827.52832 4280230938
75.517433 -15.83173 827.4715 4279705365
76.040421 -15.896136 827.3634 4279442194
76.426605 -15.815036 827.2691 4279310353
76.952812 -15.881298 827.16956 4279244561
77.341461 -15.817101 827.11731 4279310098
77.881165 -15.901012 827.15918 4279244818
78.277962 -15.833398 827.19519 4279244562
78.820045 -15.900351 827.25421 4279179281
79.217987 -15.825541 827.31012 4279178768
79.760239 -15.898698 827.36877 4279244304
80.159294 -15.827085 827.43805 4279244304
80.702385 -15.896351 827.49817 4279244304
81.097229 -15.82573 827.52618 4279244304
81.635887 -15.901863 827.54602 4279244048
82.029869 -15.830276 827.55627 4279244048
82.56855 -15.896955 827.57135 4279178255
82.962463 -15.828235 827.58929 4279112718
83.499565 -15.900487 827.57965 4279244047
83.889923 -15.827352 827.57166 4279178254
84.428871 -15.898064 827.57513 4279178254
84.818253 -15.826387 827.56 4279244047
85.356255 -15.900162 827.55188 4279244047
85.744141 -15.830963 827.52032 4279244047
86.281395 -15.9024 827.50256 4279178510
86.667374 -15.828864 827.45758 4279178254
87.204559 -15.898751 827.43518 4279178254
87.587685 -15.822486 827.37164 4279243791
88.124802 -15.890765 827.34705 4279178511
88.506554 -15.818216 827.27368 4279244047
89.04361 -15.893375 827.24353 4279178255
89.423691 -15.823505 827.16162 4279178254
89.962502 -15.893645 827.14514 4279112718
90.346336 -15.818901 827.10016 4279178511
90.88887 -15.891215 827.11377 4279112718
91.276245 -15.820821 827.10223 4279112718
91.822609 -15.894417 827.14478 4279112718
92.21106 -15.818824 827.14825 4279178255
92.758873 -15.892086 827.19934 4279112975
93.145561 -15.819091 827.19189 4279112719
93.690086 -15.887403 827.21051 4279112975
94.074989 -15.816996 827.18884 4279244047
94.616959 -15.895531 827.18341 4279178767
95.001076 -15.827724 827.15808 4279178767
95.546608 -15.897133 827.17743 4279113231
95.933777 -15.819201 827.18372 4279244304
96.480103 -15.887863 827.20685 4279178767
96.868156 -15.817166 827.22296 4279178767
97.416153 -15.889758 827.25647 4279244559
97.803871 -15.819932 827.27179 4279244559
98.35173 -15.891189 827.3017 4279244303
98.736115 -15.817853 827.29059 4279244303
99.282196 -15.892481 827.30328 4279244816
99.667213 -15.823264 827.29791 4279310096
100.21349 -15.893437 827.30847 4279244816
100.59591 -15.821238 827.28735 4279310096
101.14114 -15.893204 827.28436 4279113488
101.52145 -15.820095 827.24945 4279244304
102.06374 -15.890107 827.22168 4279179280
102.44169 -15.817114 827.16992 4279178767
102.98316 -15.888557 827.12555 4279179535
103.35966 -15.816499 827.07245 4279113230
103.90426 -15.884672 827.04382 4279113999
104.28253 -15.811695 827.01428 4279244560
104.83121 -15.883711 827.01581 4279179536
105.21376 -15.815884 827.02148 4279244559
105.76659 -15.887702 827.05139 4279179792
106.15038 -15.815878 827.07166 4279310352
106.70374 -15.886693 827.09991 4279179536
107.08526 -15.815004 827.1059 4279376145
107.63708 -15.88467 827.11243 4279310865
108.01385 -15.8158 827.09344 4279310864
108.56378 -15.887467 827.07507 4279376657
108.93769 -15.814821 827.0448 4279310352
109.4896 -15.882845 827.03229 4279179535
109.86308 -15.813776 827.008 4279245328
110.41921 -15.881723 827.01532 4279180047
110.79446 -15.811525 827.01349 4279245071
111.35395 -15.88343 827.05109 4279246095
111.73231 -15.813077 827.06824 4279180047
112.29244 -15.882731 827.11145 4279179790
112.67167 -15.814261 827.13257 4279310864
113.2309 -15.887969 827.16907 4279114256
113.60772 -15.819014 827.17114 4279376658
114.16248 -15.887169 827.17151 4279180306
114.53524 -15.814403 827.14612 4279376914
115.08734 -15.883584 827.12555 4279311377
115.45947 -15.812738 827.08862 4279311376
116.00951 -15.882744 827.05975 4279377425
116.38072 -15.81168 827.02155 4279508241
116.93317 -15.881916 827.00696 4279376912
117.30946 -15.810992 826.99585 4279508242
117.8634 -15.880442 827.00177 4279377681
118.24181 -15.808542 827.00525 4279574290
118.79816 -15.88183 827.026 4279639825
119.17915 -15.810786 827.03937 4279705619
119.7355 -15.88169 827.05682 4279640851
120.11196 -15.811852 827.05096 4279706899
120.66816 -15.881785 827.0517 4279838229
121.04141 -15.807947 827.03119 4280100632
121.59566 -15.87841 827.01495 4280100632
121.96487 -15.811026 826.97931 4280166169
122.51968 -15.880258 826.96277 4280100633
122.88902 -15.806414 826.93359 4280035096
123.44402 -15.874607 826.91541 4279969560
123.81475 -15.804302 826.89404 4280101144
124.37213 -15.875134 826.87756 4280166936
124.74403 -15.80516 826.87299 4280101401
125.30344 -15.873466 826.86975 4280232987
125.6767 -15.80437 826.87244 4280429853
126.23953 -15.875113 826.8916 4280429854
126.61251 -15.80471 826.90082 4280495390
127.17455 -15.875224 826.91766 4280364573
127.54769 -15.805686 826.92389 4280430621
128.10628 -15.874251 826.91125 4280430621
128.47394 -15.803139 826.89014 4280627486
129.02756 -15.872402 826.84778 4280561950
129.39253 -15.803419 826.8056 4280561949
129.94745 -15.87287 826.7713 4280561693
130.31094 -15.798744 826.72345 4280627742
130.86743 -15.867112 826.6991 4280496926
131.23587 -15.799316 826.68488 4280759071
131.79945 -15.870358 826.69629 4280889886
132.17168 -15.800089 826.70398 4280824351
132.73608 -15.867854 826.72589 4280759070
133.11046 -15.796612 826.73608 4280825119
133.67358 -15.870004 826.76123 4280891424
134.0482 -15.80009 826.76208 4280759838
134.60498 -15.871115 826.75763 4280825119
134.9767 -15.798841 826.7428 4280956449
135.53186 -15.869382 826.72168 4281022241
135.90077 -15.79735 826.69385 4280825375
136.45586 -15.866827 826.67377 4281021470
136.82521 -15.795057 826.64734 4280890655
137.38272 -15.867363 826.6394 4281087776
137.75243 -15.795964 826.6228 4280825375
138.31241 -15.866134 826.62842 4281218848
138.68929 -15.795548 826.64893 4281218849
139.25386 -15.866782 826.68188 4281415457
139.63086 -15.795112 826.70416 4281021983
140.19818 -15.869599 826.75439 4281152799
140.57848 -15.797763 826.79126 4281152801
141.14577 -15.86764 826.83765 4281152800
141.51981 -15.796127 826.84198 4280890654
142.0791 -15.869917 826.83679 4280890654
142.44699 -15.79894 826.81396 4281088034
143.00096 -15.86849 826.77191 4281350950
143.35988 -15.795407 826.70209 4281744684
143.90907 -15.865187 826.63232 4281810734
144.26849 -15.791334 826.56757 4281745197
144.82355 -15.861712 826.52844 4281877039
145.18863 -15.791446 826.4967 4281942574
145.7504 -15.861114 826.49518 4281876782
146.12346 -15.789294 826.50916 4281679147
146.69215 -15.862532 826.54498 4281809962
147.06659 -15.792146 826.56696 4281744938
147.63435 -15.863259 826.59778 4281876267
148.00606 -15.791727 826.60596 4281810988
148.56894 -15.862951 826.60486 4281942061
148.93515 -15.792106 826.58545 4281876013
149.49373 -15.863223 826.55847 4281743658
149.8578 -15.790895 826.5293 4281416233
150.41614 -15.860162 826.49927 4281547305
150.78185 -15.78862 826.48016 4281547049
151.34331 -15.859216 826.46582 4281481257
151.71309 -15.787425 826.47144 4281546537
152.27943 -15.858466 826.48181 4281350182
152.6524 -15.787256 826.50348 4281284646
153.22015 -15.859754 826.52106 4281415975
153.5914 -15.790697 826.53485 4281613097
154.15646 -15.86127 826.53448 4281809708
154.52426 -15.788084 826.53162 4281876013
155.0845 -15.858946 826.50452 4282007343
155.44736 -15.788836 826.47748 4282204465
156.00516 -15.858627 826.435 4282073649
156.36656 -15.78544 826.40259 4282532914
156.927 -15.856037 826.37476 4282204468
157.29143 -15.78488 826.3573 4282204211
157.85722 -15.855335 826.35944 4282138674
158.22646 -15.782886 826.36646 4282138416
158.79863 -15.855414 826.40143 4281941292
159.17047 -15.784516 826.42139 4281547561
159.74396 -15.856688 826.46008 4282007340
160.11302 -15.786647 826.46814 4282271024
160.6837 -15.85903 826.48792 4281878064
161.04942 -15.787227 826.4812 4281943088
161.61787 -15.857152 826.48718 4282008367
161.98033 -15.78447 826.46497 4281745710
162.54767 -15.854914 826.46515 4281810733
162.90988 -15.782656 826.44226 4281876268
163.47725 -15.854673 826.44122 4281614123
163.83939 -15.783846 826.4212 4281811758
164.40718 -15.854896 826.41974 4282074932
164.76994 -15.783494 826.40582 4282271282
165.34175 -15.854445 826.41888 4281942577
165.70622 -15.782765 826.41516 4281876783
166.27985 -15.853672 826.43799 4281876782
166.64604 -15.782838 826.44226 4281811247
167.21841 -15.854682 826.45801 4281942831
167.58618 -15.782876 826.47131 4281877295
168.15755 -15.85294 826.48145 4282074161
168.52196 -15.779683 826.47717 4282205744
169.0927 -15.854489 826.48114 4282598963
169.45465 -15.788589 826.46796 4282598447
170.02408 -15.857833 826.46436 4282663729
170.38399 -15.781233 826.44238 4282534450
170.94798 -15.85042 826.4137 4282273334
171.3101 -15.77915 826.40192 4282273334
171.87845 -15.85131 826.39484 4282141750
172.24242 -15.780332 826.39008 4282666807
172.81432 -15.85216 826.40039 4282732088
173.18123 -15.780385 826.40845 4282732088
173.75717 -15.85248 826.4364 4282601016
174.12387 -15.780505 826.44562 4282929723
174.69539 -15.851855 826.44788 4282667580
175.0584 -15.780559 826.4433 4282667323
175.62828 -15.851341 826.43378 4282535994
175.98819 -15.77895 826.41705 4282667067
176.55737 -15.84896 826.40314 4282405179
176.91632 -15.777816 826.38397 4282471483
177.48788 -15.850376 826.37891 4282602298
177.84906 -15.779078 826.37286 4282667579
178.42142 -15.848401 826.37292 4282667835
178.78464 -15.776034 826.37439 4282734141
179.35921 -15.848417 826.3847 4283193920
179.72366 -15.778402 826.39227 4282800448
180.30141 -15.849967 826.41425 4282800704
180.66638 -15.778122 826.42456 4283128897
181.24361 -15.849511 826.44336 4282998337
181.60535 -15.778121 826.43915 4282933056
182.17892 -15.849685 826.4389 4282801471
182.53633 -15.777787 826.41785 4283326019
183.10529 -15.847857 826.3952 4283391555
183.45921 -15.775252 826.36035 4283326276
184.02806 -15.84626 826.33441 4283589190
184.38348 -15.775158 826.30841 4283260739
184.95776 -15.845928 826.3064 4282997825
185.31804 -15.774332 826.30347 4282997825
185.89758 -15.845489 826.32379 4282997824
186.26265 -15.773573 826.34088 4283194434
186.845 -15.844807 826.37311 4283588166
187.21053 -15.774711 826.39288 4283720008
187.79332 -15.846642 826.4209 4283393355
188.15324 -15.775391 826.42078 4283392840
188.72928 -15.846604 826.41882 4283130183
189.08066 -15.775882 826.38135 4283523912
189.64963 -15.846188 826.35016 4283589189
189.99933 -15.773479 826.3056 4283196484
190.56444 -15.843402 826.25592 4283459396
190.91476 -15.770342 826.21478 4282802494
191.48898 -15.838482 826.20459 4282801466
191.85086 -15.767653 826.21399 4282538551
192.43933 -15.841213 826.26361 4282604342
192.81068 -15.77184 826.3125 4282341943
193.40674 -15.845323 826.39667 4282538552
193.7841 -15.775026 826.46948 4282604855
194.37714 -15.845651 826.53723 4282604599
194.74597 -15.774964 826.57507 4282472755
195.32579 -15.846341 826.5827 4282275375
195.68106 -15.77461 826.56622 4282209585
196.25072 -15.84633 826.52844 4282274868
196.60042 -15.775889 826.48981 4282341175
197.17117 -15.844901 826.45459 4282078006
197.52374 -15.770315 826.43121 4282274870
198.10069 -15.839068 826.42334 4282537781
198.46103 -15.769482 826.4317 4282210099
199.04715 -15.844756 826.46301 4282866488
199.40955 -15.774215 826.47852 4283260221
199.99254 -15.844709 826.49677 4283719236
200.35146 -15.773287 826.49554 4283653703
200.93338 -15.843108 826.50812 4283587911
201.29172 -15.769005 826.50525 4282997315
201.8712 -15.840682 826.5058 4282931523
202.22639 -15.770606 826.49335 4282864704
202.80426 -15.843155 826.4834 4282863164
203.15945 -15.772318 826.47241 4282732092
203.73813 -15.842457 826.46503 4282403897
204.09221 -15.770676 826.45239 4282338106
204.67036 -15.841761 826.44147 4282338108
205.02705 -15.770289 826.43842 4282665789
205.61334 -15.840707 826.4585 4282075449
205.97672 -15.768892 826.4848 4282141239
206.5648 -15.83928 826.51154 4282010935
206.92873 -15.768642 826.53986 4282339898
207.51608 -15.840363 826.56451 4282602558
207.87958 -15.769684 826.59082 4283127617
208.46365 -15.841984 826.60028 4282864961
208.82069 -15.771908 826.60132 4282995261
209.40166 -15.842812 826.59637 4283060282
209.75572 -15.771133 826.586 4282535481
210.33388 -15.840233 826.57013 4282601274
210.68541 -15.767536 826.54993 4282600763
211.26186 -15.838583 826.52649 4282403127
211.61446 -15.768353 826.51178 4282272055
212.1936 -15.839497 826.49866 4282534455
212.54813 -15.76715 826.49176 4282337589
213.1338 -15.837183 826.50269 4282206262
213.49226 -15.76626 826.51166 4282468152
214.08109 -15.837824 826.53387 4282139701
214.43988 -15.767365 826.54437 4281943603
215.02647 -15.838453 826.5556 4282140724
215.38116 -15.767001 826.55243 4281943604
215.96315 -15.837481 826.54462 4282074423
216.31255 -15.765063 826.52161 4282271800
216.89203 -15.834387 826.50372 4282074678
217.23955 -15.762203 826.47479 4282008115
217.82059 -15.833703 826.46313 4282073650
218.17186 -15.763329 826.44806 4282138674
218.75636 -15.834935 826.44971 4282203443
219.11386 -15.764264 826.45752 4281941298
219.70404 -15.836849 826.48029 4281876017
220.0645 -15.764887 826.49915 4281745200
220.6597 -15.833756 826.53717 4281613871
221.02206 -15.761121 826.56616 4281483054
221.61856 -15.834437 826.60834 4281679406
221.9805 -15.768198 826.63458 4281678895
222.57257 -15.844285 826.65924 4281940783
222.93155 -15.773626 826.67468 4281613870
223.51859 -15.839366 826.68109 4281745965
223.87141 -15.761873 826.67371 4281614126
224.45139 -15.831204 826.65186 4281548591
224.80264 -15.760476 826.6402 4281876529
225.38362 -15.83313 826.62421 4281811250
225.73721 -15.762893 826.61957 4281943860
226.32028 -15.834238 826.61188 4282076471
226.67642 -15.761762 826.61475 4282338619
227.26709 -15.834041 826.63324 4282076732
227.62404 -15.762875 826.64014 4282208314
228.21161 -15.833357 826.64606 4282602045
228.56493 -15.762252 826.64093 4282930753
229.15198 -15.833329 826.64209 4282799938
229.50397 -15.76059 826.63446 4283062594
230.08832 -15.831379 826.62585 4283062338
230.43622 -15.761516 826.60419 4283259202
231.02171 -15.833941 826.59882 4283456066
231.37297 -15.763032 826.58905 4283193920
231.96062 -15.833071 826.59119 4282996799
232.31325 -15.759787 826.58685 4282996799
232.90556 -15.830543 826.60577 4283062593
233.26462 -15.760438 826.62152 4283325507
233.86221 -15.832125 826.65759 4282997313
234.22343 -15.759574 826.68225 4283193920
234.81938 -15.831174 826.71301 4283653187
235.17947 -15.760254 826.73401 4283784515
235.77055 -15.832738 826.74481 4283587907
236.12137 -15.763043 826.73553 4283653184
236.70491 -15.832878 826.72003 4283323960
237.04926 -15.758207 826.6875 4283127094
237.62595 -15.826941 826.64813 4283062584
237.96831 -15.754452 826.60919 4283259449
238.54991 -15.828461 826.58691 4283521855
238.90593 -15.761756 826.59418 4283783229
239.50337 -15.835254 826.62335 4282076723
239.87093 -15.762091 826.67023 4281616429
240.48215 -15.82895 826.74512 4281814315
240.85556 -15.754033 826.81531 4281551402
241.46361 -15.826346 826.87933 4281551915
241.82489 -15.757562 826.9068 4281682477
242.41368 -15.831532 826.90607 4281616685
242.76236 -15.760201 826.89032 4281682735
243.33926 -15.830802 826.84796 4281617710
243.6817 -15.757937 826.81293 4281682734
244.25461 -15.827717 826.75391 4281748270
244.60019 -15.755507 826.73114 4282142512
245.17834 -15.823685 826.69128 4282208818
245.52948 -15.751863 826.68677 4282143797
246.11896 -15.82674 826.68518 4282340152
246.47539 -15.75787 826.6983 4282798648
247.07697 -15.827475 826.73816 4282339126
247.4431 -15.755071 826.78174 4282273074
248.05382 -15.829218 826.84412 4282010671
248.41629 -15.757989 826.88245 4281747499
249.01656 -15.825908 826.90735 4281615917
249.36211 -15.755429 826.88947 4281877807
249.94943 -15.825949 826.87018 4281353005
250.2793 -15.754218 826.80402 4281747247
250.85941 -15.823713 826.76312 4281682992
251.19559 -15.752438 826.69977 4281616685
251.78134 -15.823443 826.69733 4281485356
252.13161 -15.749502 826.68976 4281615660
252.74176 -15.824397 826.75629 4281747242
253.11537 -15.752069 826.81531 4282009901
253.73656 -15.826483 826.92291 4281748528
254.1147 -15.753613 827.00195 4281748270
254.73112 -15.827733 827.08191 4281420847
255.09683 -15.756285 827.12579 4281484847
255.69939 -15.827957 827.15619 4281549104
256.05197 -15.756008 827.16272 4281680176
256.64005 -15.828086 827.14514 4281484076
256.98419 -15.756038 827.12488 4280892968
257.57474 -15.824107 827.11731 4280891429
257.89005 -15.752421 827.01813 4280628259
258.46713 -15.827272 826.98566 4280693537
258.8089 -15.760685 826.96844 4280562467
259.3042 -15.848869 826.90179 4281023010
-119.80656 -15.436333 825.56085 4278518273
-119.28379 -15.389589 824.84222 4278649858
-118.69844 -15.411245 824.33807 4278780930
-118.18814 -15.367398 823.69647 4278846721
-117.60196 -15.392881 823.1861 4278912257
-117.11767 -15.350568 822.71863 4278977537
-116.55234 -15.377277 822.33923 4279043329
-116.0871 -15.335725 822.00226 4279108865
-115.534 -15.366557 821.69867 4279108865
-115.08002 -15.330157 821.43927 4279174657
-114.53625 -15.360645 821.19354 4279240450
-114.08979 -15.320642 820.98621 4279305986
-113.55609 -15.348926 820.80725 4279305986
-113.11609 -15.310616 820.64618 4279371778
-112.58932 -15.342455 820.5105 4279568643
-112.15586 -15.306712 820.39825 4279699715
-111.63432 -15.341763 820.29675 4279831044
-111.20543 -15.311031 820.21631 4279831556
-110.68844 -15.343795 820.14569 4280028678
-110.26145 -15.30582 820.07874 4280291849
-109.74383 -15.338088 820.034 4280488970
-109.31878 -15.304706 819.97748 4280751884
-108.80102 -15.336493 819.95001 4281146383
-108.38145 -15.302217 819.92572 4281344275
-107.86563 -15.33379 819.9234 4281608473
-107.45486 -15.298103 819.94928 4282199072
-106.95525 -15.330188 820.01428 4281410837
-106.5525 -15.297272 820.10571 4280884236
-106.06645 -15.334309 820.23749 4280949002
-105.66766 -15.30541 820.37604 4280817673
-105.18729 -15.344098 820.54901 4280554502
-104.78929 -15.312762 820.71655 4280226053
-104.30828 -15.351264 820.89569 4280094213
-103.90824 -15.322268 821.05719 4279831555
-103.42564 -15.360681 821.23602 4279700226
-103.02651 -15.328597 821.41077 4279568898
-102.54572 -15.365822 821.60443 4279503106
-102.14748 -15.336341 821.79083 4279437314
-101.67001 -15.375826 822.01385 4279437314
-101.27375 -15.345288 822.2215 4279437314
-100.79977 -15.383417 822.47241 4279437314
-100.40636 -15.353093 822.70966 4279437058
-99.934509 -15.392866 822.9801 4279437058
-99.545128 -15.365473 823.2547 4279371522
-99.076714 -15.40562 823.55988 4279305986
-98.691956 -15.375908 823.87915 4279240194
-98.228134 -15.416741 824.23163 4279109122
-97.845894 -15.391163 824.57483 4279043586
-97.380943 -15.432887 824.92047 4278912257
-96.993851 -15.40218 825.22986 4278846721
-96.518532 -15.442185 825.487 4278846721
-96.125923 -15.412245 825.77557 4278781185
-95.644798 -15.45966 825.98065 4278715393
