x y z rgb
126.13284 -59.281521 816.43317 4288198798
126.56477 -59.302376 816.45563 4287804824
127.0621 -59.282829 816.4892 4287804825
127.49404 -59.303181 816.51147 4287803031
127.9902 -59.287125 816.5318 4287866247
128.4189 -59.309837 816.53644 4287929481
128.91359 -59.290157 816.54407 4287469946
129.33978 -59.308277 816.53607 4286879357
129.83365 -59.287891 816.53436 4286550392
130.2583 -59.3074 816.52094 4285498730
130.75471 -59.288311 816.53271 4285037405
131.18419 -59.309502 816.54877 4283852622
131.68623 -59.292175 816.59558 4282866754
132.12158 -59.316898 816.64899 4282799167
132.62924 -59.305805 816.7298 4282339901
133.06857 -59.333015 816.80762 4282273085
133.57854 -59.319725 816.8996 4282273086
134.01707 -59.344456 816.97382 4282535231
134.52425 -59.327682 817.04364 4282733120
134.95885 -59.348892 817.09302 4282996548
135.4614 -59.332134 817.13202 4283193158
135.89117 -59.355335 817.15247 4282798916
136.39023 -59.340511 817.16949 4282535231
136.81799 -59.364807 817.18292 4282206268
137.31949 -59.345997 817.21027 4282008891
137.75058 -59.367706 817.24786 4282074168
138.25882 -59.351387 817.31262 4282074423
138.69753 -59.37801 817.39728 4281877559
139.21553 -59.367111 817.51471 4281877818
139.66273 -59.397812 817.64532 4281615159
140.18549 -59.389641 817.78906 4281549878
140.63303 -59.422432 817.92877 4281417269
141.1586 -59.409122 818.07288 4281219634
141.60077 -59.441444 818.18982 4281154097
142.12386 -59.430424 818.30975 4281088048
142.56099 -59.461117 818.4021 4281219120
143.08345 -59.442905 818.50995 4281153581
143.5202 -59.473869 818.6012 4281087788
144.0432 -59.457031 818.71173 4281021482
144.48303 -59.489666 818.81995 4280890152
145.01137 -59.476669 818.94977 4280889639
145.45068 -59.512096 819.06952 4280626726
145.97495 -59.49276 819.17999 4280495142
146.40845 -59.519924 819.25891 4280298019
146.93088 -59.505199 819.3584 4280231968
147.36005 -59.542179 819.41223 4280297249
147.88414 -59.527721 819.52325 4280296994
148.32199 -59.55434 819.61432 4280231457
148.84999 -59.541752 819.73859 4280297249
149.2903 -59.578194 819.8468 4279968798
149.8201 -59.564423 819.98462 4279771420
150.25935 -59.591564 820.07953 4279836955
150.77802 -59.572216 820.16077 4279771162
151.1853 -59.591606 820.09833 4279573527
151.65303 -59.580414 819.92212 4279507478
152.06383 -59.579704 819.83661 4279441172
152.53366 -59.549416 819.66791 4279309585
152.83873 -59.342609 819.00372 4279244052
5.8822551 -59.18132 823.10028 4278782727
6.3788524 -59.20776 822.24786 4279111692
6.7940459 -59.077877 821.68109 4279374863
7.2929597 -59.125648 821.13458 4279506705
7.7050657 -58.993481 820.50317 4279507217
8.2088156 -59.036324 819.94073 4279573266
8.619606 -58.914116 819.42566 4279770901
9.1243534 -58.968456 819.00922 4280165402
9.5353851 -58.855526 818.66919 4280297757
10.040102 -58.915226 818.39105 4280101405
10.45419 -58.812748 818.19513 4279904027
10.954201 -58.892448 818.03406 4280100634
11.367866 -58.800297 817.92731 4280101151
11.870341 -58.880146 817.83575 4280758821
12.283403 -58.78793 817.76855 4280958772
12.785446 -58.870274 817.69659 4282469438
13.1978 -58.777409 817.61316 4283000920
13.699559 -58.858608 817.51367 4286552683
14.092849 -58.775677 817.39618 4286625426
14.582598 -58.854195 817.25122 4294967248
14.968392 -58.77364 817.11938 4294967295
15.46484 -58.848694 817.01691 4294967295
15.876845 -58.765339 816.9671 4294967295
16.384224 -58.846195 816.98004 4294967295
16.827099 -58.749786 817.04645 4294967295
17.344242 -58.834358 817.17651 4292668561
17.778942 -58.748745 817.35895 4283528799
18.288879 -58.852974 817.5675 4282994988
18.707235 -58.784821 817.77765 4280760366
19.218559 -58.890114 818.00677 4280429858
19.630602 -58.821381 818.22571 4279903260
20.144125 -58.928963 818.50928 4279639575
20.55862 -58.867168 818.78857 4279507477
21.073626 -58.981606 819.12787 4279375635
21.490616 -58.922047 819.48328 4279572243
22.007977 -59.034321 819.87976 4279506706
22.429813 -58.968788 820.2027 4279243790
22.94603 -59.07428 820.43219 4279046412
23.36043 -58.999981 820.60889 4279046156
23.898691 -59.082771 820.74713 4278914827
95.429016 -59.098454 821.94159 4279112204
95.932838 -59.193325 821.78516 4278980362
96.309753 -59.101555 821.6781 4278980106
96.829208 -59.17976 821.5545 4279111948
97.19175 -59.062458 821.37012 4279374862
97.723373 -59.124546 821.2926 4279243790
98.097847 -59.039463 821.21619 4279046668
98.635262 -59.156792 821.14178 4279375118
99.009193 -59.073215 821.08307 4279704084
99.544121 -59.141644 820.99768 4279902231
99.914772 -59.042576 820.89996 4280363037
100.44061 -59.113998 820.73938 4280824357
100.79691 -59.007515 820.52405 4281350698
101.31166 -59.074184 820.3056 4281285420
101.66573 -58.968281 820.08258 4281745455
102.17777 -59.040791 819.8446 4282206004
102.52842 -58.940842 819.59705 4282731576
103.03795 -59.012264 819.34344 4282797884
103.38953 -58.909214 819.11084 4282732859
103.90395 -58.981926 818.89905 4282798397
104.26276 -58.883148 818.73077 4282995003
104.78798 -58.960064 818.60089 4282927929
105.15666 -58.861488 818.51331 4282073136
105.69633 -58.943104 818.49164 4281020709
106.0738 -58.859066 818.4787 4280035360
106.61844 -58.950249 818.487 4280035613
106.99312 -58.862377 818.4621 4280035359
107.53239 -58.945988 818.42627 4280166943
107.9015 -58.856003 818.36279 4280298273
108.43197 -58.936108 818.25824 4280561444
108.79254 -58.841621 818.13409 4280889895
109.3154 -58.915546 817.98083 4281087529
109.67538 -58.81794 817.84576 4281022761
110.20001 -58.8974 817.71106 4281285932
110.56358 -58.802219 817.60315 4281286702
111.09451 -58.882629 817.51361 4282139952
111.463 -58.791943 817.4494 4282009141
112.00156 -58.876945 817.41113 4281944373
112.37463 -58.789948 817.38538 4281944630
112.91696 -58.875763 817.37524 4282142264
113.28984 -58.786835 817.34973 4282799678
113.83179 -58.87175 817.33197 4282735680
114.20195 -58.781971 817.28809 4282604095
114.74041 -58.865105 817.24274 4282670655
115.10553 -58.774818 817.16718 4283523912
115.64037 -58.857121 817.09088 4283329357
116.00219 -58.765057 816.99902 4284577883
116.53639 -58.844521 816.91718 4284385885
116.8987 -58.752674 816.83331 4285304672
117.43587 -58.834038 816.77203 4286686314
117.80282 -58.743679 816.72211 4287278196
118.34547 -58.827648 816.70044 4287478135
118.71812 -58.74041 816.68695 4288593799
119.26463 -58.829941 816.69202 4290564752
119.63998 -58.746571 816.69745 4290831518
120.18747 -58.83379 816.70667 4292213155
120.5617 -58.746147 816.70679 4292476838
121.1069 -58.830444 816.69775 4294180789
121.4772 -58.743126 816.67535 4294770636
122.01939 -58.828896 816.64117 4294967285
122.38663 -58.743141 816.60321 4294967295
122.92793 -58.828003 816.56122 4294967288
123.29422 -58.73716 816.51825 4294967274
123.83651 -58.816589 816.48016 4294967283
124.20422 -58.727802 816.44885 4294967280
124.74992 -58.815701 816.43201 4293853141
125.12161 -58.734161 816.42914 4292211392
125.67018 -58.822548 816.43036 4292211650
126.04378 -58.737251 816.43994 4291819722
126.5947 -58.821587 816.45465 4291294672
126.96997 -58.734489 816.47754 4293195728
127.52163 -58.822689 816.49274 4291422921
127.895 -58.740173 816.50421 4290697916
128.44423 -58.827835 816.49921 4290104236
128.81505 -58.741985 816.49854 4289971874
129.36273 -58.824486 816.48236 4288658588
129.73233 -58.736248 816.47632 4288458899
130.27963 -58.821632 816.45422 4286487166
130.65067 -58.738571 816.45929 4285367659
131.20282 -58.825413 816.46747 4284249429
131.57874 -58.741138 816.50391 4282934349
132.13712 -58.831676 816.5498 4282802758
132.51756 -58.752071 816.61334 4282735431
133.08061 -58.843941 816.68311 4282670409
133.46288 -58.764145 816.76013 4282996809
134.02649 -58.854977 816.83026 4282602564
134.40599 -58.771717 816.89087 4282734149
134.96655 -58.859238 816.93756 4283456845
135.34113 -58.774494 816.9718 4283916110
135.89688 -58.863243 816.98853 4283063117
136.26709 -58.781788 816.99756 4283193417
136.82103 -58.869915 817.00104 4282733381
137.19156 -58.785767 817.01544 4282404161
137.74986 -58.872593 817.03882 4282404158
138.12523 -58.789577 817.08484 4282272573
138.69206 -58.880955 817.15619 4282141500
139.07535 -58.803112 817.24792 4282075195
139.65056 -58.896797 817.36603 4281878330
140.03815 -58.818375 817.4812 4282009401
140.61458 -58.915493 817.60846 4281746233
141.00264 -58.838947 817.72302 4281745975
141.57581 -58.931553 817.828 4281614390
141.96008 -58.852627 817.9198 4282007349
142.52962 -58.946911 818.00043 4281810229
142.91196 -58.866222 818.08301 4281613620
143.4823 -58.957184 818.16156 4281613619
143.8647 -58.87632 818.24725 4281416496
144.43881 -58.971283 818.34637 4281415984
144.82651 -58.895401 818.46082 4281350191
145.40706 -58.990608 818.59253 4281087278
145.79649 -58.915493 818.72778 4281153070
146.37874 -59.009911 818.85834 4280628011
146.7679 -58.936703 818.99835 4280692776
147.35289 -59.033958 819.13806 4280823335
147.74242 -58.962234 819.28033 4280692007
148.33023 -59.056011 819.43097 4280560677
148.72066 -58.9795 819.56995 4280364068
149.3035 -59.077122 819.6947 4280429604
149.69186 -59.001869 819.81793 4280494884
150.27023 -59.093887 819.91309 4280560164
150.64636 -59.010773 819.97388 4280363041
151.20107 -59.097286 819.93994 4280296993
151.5537 -59.007359 819.87823 4280165151
152.08685 -59.087044 819.72308 4279770909
152.4418 -59.003918 819.6662 4279836188
152.95335 -59.072002 819.44696 4279507995
153.31061 -58.96067 819.30817 4279507481
154.14232 -58.85743 818.81415 4279112980
154.83328 -58.90163 818.47418 4278915340
5.9529247 -58.795586 823.16187 4278848520
6.3838043 -58.76207 822.20349 4279111948
6.8374639 -58.69981 821.62518 4279374862
7.2963524 -58.683449 821.08209 4279506704
7.7520032 -58.613544 820.4502 4279572753
8.2066174 -58.597515 819.90411 4279639060
8.6674232 -58.534447 819.38538 4279836694
9.116559 -58.53426 818.98663 4280034586
9.5840702 -58.477352 818.64789 4280166430
10.028348 -58.483898 818.38428 4279970075
10.496185 -58.438961 818.19153 4279969820
10.945727 -58.460617 818.03601 4280100380
11.41077 -58.430515 817.9317 4279970591
11.866342 -58.447784 817.83826 4280759336
12.327093 -58.415428 817.76813 4281025335
12.787836 -58.431126 817.68909 4282208320
13.242024 -58.403587 817.60529 4283070558
13.704243 -58.417164 817.50146 4286552694
14.126678 -58.405472 817.38336 4285715604
14.605722 -58.404724 817.23712 4294967290
14.99848 -58.402718 817.11176 4294967295
15.514504 -58.383839 817.01764 4294967295
15.909025 -58.390705 816.97681 4294967295
16.433304 -58.384121 816.99554 4294967295
16.870947 -58.380058 817.07141 4294967295
17.365667 -58.390179 817.21136 4289118601
17.824762 -58.381729 817.40497 4281432404
18.287947 -58.41972 817.61444 4282533689
18.753702 -58.415993 817.83313 4280498732
19.211412 -58.459675 818.06067 4280429345
19.677975 -58.45425 818.28827 4279903515
20.138401 -58.500412 818.56836 4279770903
20.606472 -58.500732 818.85657 4279507989
21.071489 -58.549759 819.18921 4279441427
21.539312 -58.552929 819.56531 4279309841
22.010979 -58.59668 819.93787 4279375376
22.478535 -58.59272 820.17334 4279177997
22.943792 -58.632267 820.39471 4279111949
23.415813 -58.619652 820.57123 4279046156
96.823219 -58.745262 821.6955 4279045899
97.302696 -58.721378 821.63879 4279111691
97.750351 -58.702503 821.71228 4279045641
98.234222 -58.714054 821.70422 4278915338
98.668892 -58.771313 821.65601 4279309582
99.15239 -58.735992 821.6311 4279639317
99.582367 -58.73925 821.54584 4279902744
100.05588 -58.70245 821.41895 4280297501
100.47935 -58.71336 821.28772 4280889892
100.9377 -58.668491 821.03363 4281153320
101.34912 -58.668659 820.81097 4281088295
101.80466 -58.630516 820.56641 4281154601
102.21337 -58.636353 820.33032 4281482283
102.66386 -58.601013 820.05029 4281877552
103.06837 -58.60474 819.78821 4282272309
103.52065 -58.564587 819.5177 4282337847
103.92905 -58.57045 819.30328 4282272311
104.3909 -58.536091 819.11035 4282730551
104.80756 -58.546631 818.98279 4282402100
105.28465 -58.511234 818.88635 4281677609
105.71161 -58.532516 818.86151 4280625185
106.20019 -58.513268 818.84406 4279771931
106.6282 -58.545441 818.83759 4279836954
107.11713 -58.516464 818.79993 4279772187
107.53873 -58.536789 818.75116 4279903259
108.02282 -58.503613 818.6687 4279969051
108.43633 -58.52462 818.55579 4280231967
108.91116 -58.486633 818.409 4280429345
109.31918 -58.498444 818.25336 4280495395
109.79121 -58.46323 818.09949 4280561443
110.20279 -58.477566 817.96191 4280693285
110.67629 -58.445637 817.83704 4280890406
111.09518 -58.461277 817.74213 4281547306
111.57387 -58.435772 817.6687 4281547820
112.00098 -58.455444 817.62445 4281417516
112.48438 -58.432941 817.5943 4281811503
112.91656 -58.449039 817.57629 4282074677
113.39974 -58.428547 817.54883 4282272310
113.8299 -58.446251 817.52417 4282404407
114.31122 -58.42152 817.47296 4282470711
114.736 -58.437679 817.42084 4282470456
115.21297 -58.412678 817.33221 4282865210
115.63303 -58.429531 817.25031 4283128131
116.10706 -58.402172 817.14276 4283392068
116.52613 -58.413315 817.05585 4283787338
117.00103 -58.387009 816.9588 4283854658
117.42353 -58.403522 816.89423 4284708687
117.90391 -58.378948 816.83478 4285301072
118.33142 -58.396576 816.81158 4285825885
118.81821 -58.376259 816.79468 4286615644
119.24992 -58.397293 816.80078 4287273071
119.74014 -58.37899 816.80475 4287014254
120.17245 -58.400864 816.81531 4287345008
120.66215 -58.38118 816.81384 4288070772
121.09146 -58.398781 816.80536 4289778310
121.5773 -58.378368 816.77441 4292274852
122.00171 -58.396816 816.73694 4294180804
122.48467 -58.372379 816.68408 4294967257
122.90679 -58.391487 816.63629 4294311886
123.38943 -58.367695 816.57849 4294967266
123.81207 -58.381149 816.53455 4294967266
124.29716 -58.356907 816.49249 4294967288
124.72293 -58.37812 816.47205 4294115293
125.21335 -58.363464 816.46411 4293525480
125.64162 -58.387196 816.46289 4294967281
126.1348 -58.365665 816.4682 4294967295
126.56482 -58.381691 816.47736 4294967291
127.05956 -58.360146 816.49426 4294967286
127.4891 -58.383549 816.50098 4294508528
127.98237 -58.368572 816.50348 4294311928
128.40797 -58.389313 816.4895 4293853138
128.89973 -58.366299 816.47742 4293196739
129.3233 -58.381962 816.45471 4291225014
129.81467 -58.359375 816.43701 4290433199
130.23645 -58.379372 816.40735 4288590997
130.7303 -58.36047 816.40143 4287143035
131.15709 -58.381039 816.40088 4285957486
131.65562 -58.363262 816.42731 4284907360
132.08801 -58.387115 816.46094 4284445784
132.59128 -58.372379 816.51697 4283986254
133.02747 -58.397362 816.5744 4284182100
133.5341 -58.383514 816.64954 4283984208
133.97008 -58.407345 816.70886 4283654223
134.47556 -58.388592 816.76917 4283522889
134.90822 -58.410149 816.80859 4283719757
135.40953 -58.393276 816.84161 4283457866
135.83722 -58.413986 816.85327 4283392588
136.33417 -58.395618 816.85553 4283720782
136.75871 -58.418369 816.85156 4283720528
137.25644 -58.398743 816.8573 4283324999
137.68329 -58.420704 816.8689 4283192903
138.18661 -58.404476 816.90662 4282733377
138.62027 -58.428345 816.9599 4282535488
139.13179 -58.413624 817.04401 4282272830
139.57343 -58.441082 817.13971 4282403902
140.08879 -58.429886 817.24756 4282403902
140.53194 -58.457741 817.35211 4282206780
141.04849 -58.444302 817.45917 4282338365
141.48804 -58.47031 817.54376 4282009658
142.00133 -58.457504 817.62787 4282074939
142.43716 -58.482471 817.69098 4282074168
142.95 -58.467747 817.76819 4281746233
143.38474 -58.493923 817.8277 4281811511
143.89766 -58.479107 817.90637 4281811253
144.33592 -58.505344 817.98523 4281810998
144.85558 -58.493805 818.09723 4281876791
145.29892 -58.525101 818.21399 4281876790
145.82594 -58.514847 818.36133 4281679412
146.27386 -58.546547 818.50446 4281088558
146.80605 -58.536331 818.66998 4281154095
147.25308 -58.574566 818.81702 4281284399
147.78838 -58.561737 818.98889 4281021484
148.23643 -58.594719 819.14069 4280890154
148.77106 -58.582821 819.29993 4280759081
149.21533 -58.61869 819.43494 4280758826
149.74562 -58.605968 819.57275 4280824106
150.18623 -58.635967 819.67792 4280889642
150.70535 -58.617256 819.76367 4280823335
151.12595 -58.643913 819.75928 4280757800
151.62833 -58.627495 819.75507 4280429349
152.04031 -58.640644 819.70245 4280297762
152.55266 -58.621101 819.74481 4280166179
152.95981 -58.646561 819.69452 4280100129
153.47972 -58.61327 819.75574 4279968287
153.90051 -58.635681 819.7699 4279770909
154.42728 -58.631794 819.88483 4279573529
154.87149 -58.671886 820.00055 4279441685
155.38426 -58.65535 820.02429 4279441425
155.81383 -58.667557 820.07745 4279243791
156.34679 -58.641216 820.12921 4278980875
5.8798442 -58.235733 822.94305 4278848520
6.3775949 -58.276619 822.14252 4279111948
6.7938328 -58.15094 821.61029 4279375118
7.2943683 -58.196762 821.04657 4279441424
7.704278 -58.067932 820.43011 4279507473
8.2104368 -58.108055 819.86121 4279573522
8.6185751 -57.989746 819.36646 4279902487
9.1261787 -58.042835 818.96326 4280034844
9.5351801 -57.932014 818.64136 4280297757
10.039788 -57.99305 818.38385 4280035357
10.454224 -57.891754 818.19855 4279969307
10.954237 -57.974163 818.04932 4280100378
11.368216 -57.885185 817.94464 4280167201
11.870155 -57.965664 817.8559 4281481002
12.283136 -57.869659 817.77991 4281417785
12.785029 -57.949337 817.70404 4282405181
13.197485 -57.856445 817.61133 4283330653
13.698569 -57.938343 817.51166 4286883437
14.082461 -57.861637 817.38416 4287878052
14.580894 -57.936043 817.23865 4294967295
14.965145 -57.857903 817.10968 4294967295
15.47464 -57.924118 817.0166 4294967295
15.878144 -57.842453 816.97681 4294967295
16.397036 -57.920479 816.99731 4294967295
16.83696 -57.829781 817.07318 4294967287
17.353458 -57.917233 817.22681 4287084403
17.780237 -57.837021 817.42151 4282278488
18.290445 -57.941673 817.64319 4282010419
18.708544 -57.873322 817.86517 4280432171
19.220945 -57.977467 818.10449 4280429343
19.632608 -57.91069 818.33844 4279771929
20.147013 -58.018032 818.63495 4279770901
20.561016 -57.956348 818.92102 4279442195
21.076918 -58.069885 819.2655 4279506961
21.494078 -58.010502 819.63397 4279441426
22.010946 -58.120876 820.00775 4279375376
22.429522 -58.049026 820.21869 4279112461
22.945847 -58.150799 820.44824 4279177484
23.359421 -58.078014 820.6037 4279046156
98.038818 -58.581059 823.94299 4278782983
98.402504 -58.447975 823.77625 4278849033
98.895714 -58.402351 823.34894 4279309324
99.238548 -58.27869 823.01904 4279573266
99.727402 -58.319206 822.53278 4279967766
100.07076 -58.214191 822.20715 4280494364
100.58842 -58.27037 821.92883 4281020451
100.93353 -58.167301 821.67273 4281218597
101.45274 -58.233734 821.45837 4281153318
101.80624 -58.131123 821.23822 4280890917
102.3136 -58.200974 820.95319 4281087781
102.65987 -58.097672 820.6662 4281482026
103.16043 -58.162312 820.33545 4282139440
103.50723 -58.055843 820.06293 4282336305
104.01718 -58.125092 819.80963 4282073394
104.37174 -58.025768 819.61615 4282204206
104.89618 -58.096611 819.47272 4281678120
105.2608 -57.996586 819.36536 4280625440
105.79929 -58.082336 819.33112 4280099354
106.17156 -58.001911 819.28735 4279901722
106.71323 -58.090569 819.25818 4279770905
107.08183 -57.999851 819.19427 4279771162
107.6192 -58.076191 819.11987 4279706138
107.98309 -57.98465 819.02179 4279771418
108.51296 -58.05978 818.88599 4279968539
108.86719 -57.964077 818.73547 4280034589
109.39125 -58.035484 818.56244 4280035102
109.74741 -57.940319 818.41052 4280297504
110.27225 -58.015411 818.25781 4280232480
110.63119 -57.920681 818.13159 4280429858
111.16195 -57.998611 818.02203 4280758564
111.52827 -57.906841 817.94452 4280824869
112.06503 -57.991478 817.89105 4281088039
112.4365 -57.904144 817.85419 4281219881
112.97649 -57.987885 817.82422 4281679405
113.3482 -57.898785 817.78931 4281614382
113.88699 -57.982769 817.75159 4281877041
114.25621 -57.892197 817.69427 4281877811
114.7916 -57.974159 817.62653 4281747764
115.15452 -57.882412 817.53217 4282207799
115.68653 -57.960629 817.43372 4282537019
116.04581 -57.867371 817.32312 4282471742
116.57728 -57.946781 817.2196 4282866752
116.93737 -57.85434 817.11981 4282801216
117.47213 -57.93399 817.04053 4283131720
117.83718 -57.843063 816.97742 4283524682
118.37919 -57.927231 816.94684 4283657036
118.75022 -57.840626 816.92688 4284247633
119.2974 -57.927574 816.93213 4283987798
119.67191 -57.842682 816.93323 4284512602
120.22038 -57.929977 816.94617 4283663184
120.59373 -57.844204 816.94171 4283991121
121.13877 -57.930275 816.93066 4285767258
121.50747 -57.842056 816.89557 4287736174
122.04775 -57.924129 816.84998 4289051508
122.41236 -57.833904 816.79169 4289516168
122.95081 -57.917358 816.73212 4291357333
123.31468 -57.827312 816.67004 4291949731
123.85427 -57.908363 816.61676 4293785774
124.2198 -57.81929 816.56903 4293066688
124.76357 -57.904922 816.54175 4294967248
125.13375 -57.822037 816.52795 4294967262
125.68147 -57.909306 816.5246 4294967295
126.05355 -57.821629 816.5235 4294967295
126.60286 -57.904068 816.52826 4294967295
126.97632 -57.817627 816.53918 4294967278
127.52576 -57.907764 816.54083 4294967290
127.89665 -57.826183 816.53571 4294967295
128.44263 -57.910801 816.51227 4294967295
128.81053 -57.822117 816.49072 4294967256
129.35548 -57.902599 816.45935 4292411336
129.72261 -57.813713 816.43494 4292210883
130.26683 -57.898094 816.39569 4288927150
130.63509 -57.814102 816.38214 4287543194
131.18456 -57.900246 816.37341 4286424453
131.55731 -57.816864 816.39038 4286552706
132.1123 -57.905979 816.41632 4285831284
132.48897 -57.822662 816.45612 4284713832
133.04816 -57.912106 816.50543 4285501288
133.42773 -57.832695 816.56445 4284579939
133.98811 -57.922192 816.61896 4284249946
134.36588 -57.837772 816.66742 4284182106
134.92415 -57.924187 816.70227 4283984977
135.29738 -57.840103 816.72949 4283065933
135.85165 -57.926308 816.73779 4283723344
136.22009 -57.841148 816.73694 4284183125
136.77148 -57.927341 816.72711 4284708700
137.14 -57.843571 816.72766 4284576087
137.69403 -57.929855 816.73059 4284049235
138.06686 -57.847702 816.75775 4283129421
138.62833 -57.937641 816.80225 4282865992
139.00758 -57.857357 816.86902 4282799175
139.57716 -57.948765 816.95599 4282864710
139.95978 -57.869614 817.04309 4282667074
140.53091 -57.963078 817.14008 4282273084
140.91373 -57.882786 817.22711 4282470205
141.48218 -57.971539 817.30542 4282338618
141.86147 -57.891003 817.37085 4282272315
142.42625 -57.982498 817.42499 4282402362
142.80435 -57.902206 817.48584 4282533691
143.36894 -57.992729 817.53491 4282206524
143.74681 -57.911728 817.59656 4281943608
144.31482 -58.002102 817.66327 4282008377
144.69804 -57.923294 817.75519 4282205499
145.27426 -58.017269 817.86578 4282205240
145.66344 -57.941376 817.992 4281877558
146.24631 -58.038643 818.13953 4281811508
146.64023 -57.963417 818.28876 4281679924
147.22801 -58.061733 818.45831 4281876019
147.62291 -57.987652 818.61316 4281482802
148.20895 -58.084274 818.76825 4281219633
148.60052 -58.008926 818.90375 4281219376
149.18286 -58.104919 819.03125 4281219632
149.56941 -58.026188 819.14117 4281284912
150.1496 -58.11953 819.25305 4281153326
150.53046 -58.041466 819.33557 4281087532
151.09912 -58.131008 819.38477 4281218604
151.46857 -58.048164 819.41168 4281021226
152.02806 -58.134682 819.40833 4281152042
152.40871 -58.056808 819.48944 4280823848
152.96736 -58.143158 819.49359 4280626471
153.35428 -58.05843 819.5769 4280363556
153.92316 -58.145805 819.63849 4280165922
154.31006 -58.046593 819.74438 4280231201
154.89508 -58.16835 819.89978 4279902492
155.22008 -58.088604 819.96051 4279705112
155.83261 -58.181217 819.94147 4279573269
156.19928 -58.102947 819.97882 4279310099
156.76805 -58.165939 819.91785 4279047439
157.13942 -58.085014 819.96881 4278915597
5.4744902 -57.958897 824.14545 4278519556
5.9347992 -57.909325 823.54352 4278848776
6.3859863 -57.851341 822.39532 4279112204
6.8371954 -57.781326 821.71277 4279440911
7.2960515 -57.75565 821.01062 4279507216
7.7503672 -57.687439 820.38776 4279573521
8.205965 -57.67223 819.8335 4279639571
8.6658268 -57.611374 819.33112 4279903000
9.1158981 -57.612076 818.94293 4280100634
9.5828152 -57.554714 818.62018 4280363037
10.028099 -57.561272 818.37524 4280231708
10.495614 -57.519371 818.19281 4279969306
10.947342 -57.541309 818.04871 4280231710
11.410274 -57.51292 817.9469 4280430372
11.868068 -57.531502 817.85492 4281284654
12.326598 -57.498394 817.77661 4281483579
12.79001 -57.50914 817.69598 4282930248
13.241663 -57.482876 817.60431 4283399266
13.703742 -57.497169 817.50214 4287605633
14.125647 -57.484436 817.37604 4288280225
14.604919 -57.486172 817.23499 4294967295
14.997233 -57.486973 817.11487 4294967295
15.514276 -57.469662 817.0307 4294967295
15.910021 -57.472599 816.99805 4294967295
16.434031 -57.46241 817.02155 4294967295
16.871414 -57.458942 817.10297 4293525488
17.3666 -57.474396 817.2594 4287211157
17.825222 -57.469727 817.45953 4280643157
18.287357 -57.510586 817.67865 4281681206
18.754646 -57.505901 817.90643 4280367914
19.211771 -57.549065 818.14276 4280297761
19.679598 -57.541592 818.38739 4279771929
20.139387 -57.587978 818.68054 4279573780
20.608631 -57.586819 818.97961 4279310610
21.074341 -57.636051 819.31628 4279441170
21.542322 -57.640862 819.70312 4279375377
22.012497 -57.68013 820.01251 4279309583
22.481106 -57.671711 820.20819 4279112204
22.943214 -57.709927 820.4054 4279111948
23.421686 -57.688839 820.52094 4279111948
98.946617 -58.096256 823.98029 4279177997
99.364273 -57.921661 823.42645 4279441425
99.769638 -57.910938 823.12195 4279836437
100.23566 -57.878986 822.91107 4280362523
100.62745 -57.876156 822.52478 4280626462
101.08502 -57.83239 822.24219 4280954658
101.49055 -57.836613 822.00647 4280889378
101.9501 -57.791122 821.73206 4280823842
102.35297 -57.80154 821.49347 4280955170
102.80878 -57.761215 821.21613 4281153317
103.20084 -57.762394 820.88409 4281678633
103.65124 -57.718079 820.57031 4281940268
104.054 -57.725864 820.32819 4281809451
104.51398 -57.683899 820.10547 4281545766
104.92705 -57.690624 819.96271 4280822303
105.4027 -57.655544 819.84528 4280033559
105.82616 -57.683777 819.79382 4279901206
106.30951 -57.663521 819.737 4279639062
106.73256 -57.688602 819.68359 4279770391
107.21521 -57.653324 819.6012 4279770647
107.63248 -57.672607 819.51025 4279639575
108.11194 -57.636635 819.38538 4279705368
108.52148 -57.655556 819.24432 4279902234
108.99528 -57.61285 819.07391 4279968026
109.39983 -57.627365 818.90442 4279968538
109.87395 -57.588432 818.73541 4279968795
110.28002 -57.605625 818.58331 4280034588
110.75594 -57.569454 818.44092 4280166429
111.16837 -57.58886 818.32831 4280363295
111.64944 -57.55386 818.23889 4280495136
112.07009 -57.5737 818.17725 4280692771
112.55614 -57.549686 818.13257 4280824355
112.9813 -57.570366 818.09229 4280890405
113.46648 -57.543571 818.05084 4281021735
113.89125 -57.562199 818.00305 4281284650
114.37328 -57.534771 817.93463 4281285162
114.79344 -57.553093 817.85791 4281483052
115.26903 -57.523888 817.74829 4281746991
115.68601 -57.537292 817.64258 4281878577
116.1574 -57.507893 817.51575 4282009909
116.57352 -57.518818 817.40582 4282207286
117.04623 -57.491146 817.29205 4282339382
117.46609 -57.506073 817.2074 4282733627
117.9447 -57.48196 817.13495 4283127616
118.37054 -57.499653 817.10016 4283390275
118.85696 -57.477936 817.07788 4283588416
119.2883 -57.49931 817.08167 4283260227
119.77835 -57.479103 817.08374 4283326790
120.211 -57.500076 817.09564 4283391812
120.70066 -57.482616 817.09094 4283590714
121.12923 -57.501587 817.07666 4284576331
121.61352 -57.477745 817.03424 4285498448
122.03581 -57.493748 816.98199 4286418525
122.51605 -57.467293 816.90826 4287473254
122.93462 -57.484509 816.84003 4288000115
123.41488 -57.460602 816.76215 4288789372
123.83485 -57.476231 816.70233 4289512076
124.31779 -57.451775 816.64374 4289319059
124.74172 -57.47163 816.61267 4290765980
125.2308 -57.451248 816.59613 4292607672
125.65912 -57.470829 816.59235 4294967269
126.15075 -57.450405 816.59125 4294967295
126.58012 -57.468765 816.59369 4294967282
127.07296 -57.448772 816.60168 4294967259
127.50127 -57.471371 816.59845 4294967272
127.99171 -57.454952 816.58563 4294967295
128.41496 -57.473518 816.55573 4294967295
128.90295 -57.448982 816.52191 4294967288
129.32451 -57.465378 816.48456 4294967257
129.81256 -57.441113 816.4472 4292804568
130.23181 -57.459419 816.40234 4292345804
130.72266 -57.439636 816.37604 4290965700
131.14632 -57.46133 816.35895 4289974448
131.64221 -57.442513 816.36542 4288529824
132.0712 -57.465508 816.38116 4288329623
132.57088 -57.446526 816.41309 4287672711
133.00362 -57.468689 816.45142 4287539589
133.5072 -57.453259 816.50629 4287012992
133.94084 -57.478855 816.55096 4286156663
134.44357 -57.460732 816.59613 4286024300
134.87402 -57.480984 816.62158 4285496419
135.37381 -57.461651 816.64526 4284315477
135.79965 -57.480896 816.64771 4284380760
136.29524 -57.45911 816.6413 4284382296
136.71742 -57.480938 816.62708 4284777054
137.21375 -57.461124 816.62256 4285170017
137.63776 -57.48151 816.61987 4284775010
138.13864 -57.464344 816.64252 4284247643
138.56847 -57.489819 816.67517 4283918423
139.07651 -57.473557 816.73846 4283720016
139.51329 -57.499405 816.80804 4283653455
140.0249 -57.486103 816.89142 4283324744
140.46356 -57.512455 816.97113 4282929985
140.97551 -57.496773 817.05377 4283192896
141.41133 -57.519753 817.11731 4282798144
141.91951 -57.502544 817.17523 4282928705
142.35114 -57.526741 817.21484 4282797120
142.85873 -57.511814 817.26611 4282468414
143.28819 -57.536823 817.29828 4282534717
143.79587 -57.520538 817.3468 4282468922
144.22784 -57.544189 817.3938 4282271802
144.74202 -57.527683 817.47528 4282074941
145.18155 -57.555542 817.5661 4282206523
145.70264 -57.545303 817.68774 4282468666
146.14951 -57.575024 817.81573 4282206010
146.67729 -57.56485 817.97015 4282074427
147.12782 -57.597706 818.12292 4282074682
147.65811 -57.589333 818.28534 4281747255
148.10678 -57.619923 818.42664 4281549364
148.63376 -57.609772 818.56543 4281614904
149.07837 -57.640293 818.68408 4281614389
149.60075 -57.625774 818.79431 4281548085
150.04321 -57.653774 818.89624 4281351474
150.56125 -57.6418 818.98523 4281285681
150.99745 -57.670715 819.06049 4281284911
151.5152 -57.652683 819.13837 4281284911
151.94481 -57.677204 819.1861 4281415984
152.46931 -57.662109 819.29346 4281153070
152.89908 -57.692085 819.34827 4280890410
153.42548 -57.675072 819.46381 4280693033
153.86055 -57.703186 819.54376 4280561190
154.39046 -57.690392 819.67438 4280560678
154.82993 -57.725487 819.77808 4280428835
155.35548 -57.713112 819.87012 4280297248
155.77164 -57.738503 819.87061 4280099870
156.29832 -57.71146 819.93695 4279771164
156.71179 -57.72657 819.91614 4279573528
157.2047 -57.723015 819.90265 4279441941
157.62053 -57.736164 819.82556 4279244305
158.52513 -57.733658 819.74896 4278980364
6.3731456 -57.314629 821.59827 4279177740
6.7906985 -57.20298 821.25024 4279506447
7.2937369 -57.255615 820.81683 4279441424
7.7051196 -57.14204 820.38031 4279507729
8.2108955 -57.183388 819.79755 4279639827
8.6193609 -57.065441 819.31268 4280034072
9.1268187 -57.117416 818.91791 4280231707
9.5343628 -57.009663 818.60736 4280231963
10.039056 -57.072796 818.36871 4280166170
10.451656 -56.974903 818.19421 4279969051
10.954241 -57.056015 818.05847 4280297757
11.365958 -56.967922 817.96075 4280692519
11.869567 -57.046402 817.87195 4281547312
12.282875 -56.952141 817.79205 4281746494
12.784382 -57.031563 817.71619 4283128900
13.197228 -56.938217 817.61719 4284054117
13.688919 -57.02422 817.51837 4287013987
14.082025 -56.941566 817.383 4289981868
14.56795 -57.022629 817.24255 4294967295
14.975119 -56.935234 817.11981 4294967295
15.473225 -57.010101 817.03418 4294967295
15.89111 -56.919201 817.00153 4294967295
16.408972 -56.994022 817.0271 4294967295
16.846212 -56.90345 817.10779 4294967295
17.36186 -56.997192 817.27448 4287212679
17.780628 -56.924976 817.47253 4281688153
18.291279 -57.029114 817.70319 4282010423
18.709482 -56.960922 817.93378 4280432683
19.22031 -57.06675 818.18311 4280232223
19.634367 -56.999825 818.43475 4279705881
20.147577 -57.106915 818.74518 4279639317
20.563622 -57.042912 819.04321 4279441427
21.077951 -57.156002 819.39038 4279441169
21.497065 -57.097046 819.76422 4279441169
22.012655 -57.204628 820.0871 4279309584
22.430117 -57.131992 820.26733 4279177997
22.943579 -57.233051 820.47766 4279177484
23.357874 -57.155197 820.58771 4279111691
100.41504 -57.843269 827.2298 4279638546
100.27219 -57.56609 823.94263 4280099094
100.79659 -57.461437 823.6062 4280296730
101.119 -57.359703 823.23505 4280428315
101.64305 -57.422249 823.00562 4280494108
101.97528 -57.313614 822.6286 4280625694
102.47303 -57.378227 822.2547 4280757535
102.81728 -57.269138 821.98004 4280889376
103.31551 -57.329281 821.60504 4281152036
103.65758 -57.224251 821.31329 4281349156
104.16793 -57.28968 821.03064 4281151780
104.51601 -57.185043 820.80493 4280691486
105.03828 -57.250572 820.62616 4280164887
105.39691 -57.155796 820.47919 4279573267
105.93191 -57.245255 820.40967 4279704337
106.29839 -57.161945 820.31848 4279507218
106.8327 -57.241985 820.23157 4279704083
107.19534 -57.144699 820.11566 4279573268
107.72574 -57.218685 819.98706 4279573526
108.0841 -57.125397 819.841 4279704599
108.60949 -57.196815 819.67145 4279704855
108.96112 -57.098557 819.49365 4279836440
109.48466 -57.168247 819.30255 4279836953
109.83681 -57.073032 819.13074 4279771160
110.36256 -57.145966 818.95874 4279771417
110.71588 -57.053211 818.81104 4279968539
111.24902 -57.124748 818.67987 4279968796
111.60799 -57.033447 818.58185 4280231454
112.14692 -57.112411 818.50757 4280166687
112.51274 -57.027027 818.44983 4280298015
113.05363 -57.10788 818.39703 4280298785
113.42123 -57.018936 818.34491 4280560930
113.95905 -57.099331 818.28534 4280758050
114.32559 -57.007904 818.20917 4280824100
114.85826 -57.089947 818.11664 4281088293
115.21827 -56.996845 818.00262 4281088807
115.74807 -57.071732 817.87976 4281417003
116.10384 -56.977219 817.75067 4281483053
116.633 -57.054192 817.62323 4281614896
116.98982 -56.961311 817.50616 4282008627
117.52306 -57.039345 817.40649 4281878583
117.88532 -56.950817 817.33044 4282665787
118.42599 -57.033245 817.28601 4282272567
118.79564 -56.945 817.2583 4282076471
119.34274 -57.030235 817.25781 4282143036
119.71603 -56.946156 817.25421 4282798914
120.26487 -57.033794 817.26569 4282078271
120.63738 -56.949024 817.25568 4282734914
121.18195 -57.033867 817.23615 4282803013
121.5488 -56.94334 817.19031 4283657037
122.08745 -57.021931 817.12836 4284315732
122.44857 -56.931473 817.05042 4285169242
122.98402 -57.014442 816.96704 4285106528
123.34443 -56.924118 816.88513 4285959012
123.88146 -57.004532 816.81287 4285829988
124.24433 -56.916264 816.74963 4286618735
124.78645 -56.999557 816.70959 4287411057
125.15582 -56.911629 816.68994 4289053567
125.70361 -56.996391 816.68561 4291486097
126.0752 -56.909927 816.68207 4292801955
126.62447 -56.99427 816.68341 4294310816
126.99654 -56.910999 816.68854 4291821476
127.54524 -56.998199 816.68188 4294967245
127.91364 -56.913067 816.66406 4294967295
128.45766 -56.995827 816.62555 4294967295
128.82213 -56.907887 816.58447 4294967294
129.36501 -56.989986 816.53906 4294967281
129.72922 -56.901131 816.49689 4294967276
130.27104 -56.982594 816.44391 4294967295
130.63646 -56.897621 816.41132 4294967291
131.18286 -56.983791 816.38629 4294967268
131.55307 -56.898972 816.38477 4292277457
132.10471 -56.985123 816.39276 4290832833
132.47803 -56.901089 816.40997 4290632635
133.03349 -56.987217 816.43848 4290041015
133.40993 -56.905445 816.47668 4289512361
133.96722 -56.99596 816.51288 4287083155
134.34222 -56.91428 816.54431 4287145867
134.89758 -56.999817 816.56091 4286815613
135.26909 -56.913795 816.57855 4285434737
135.82161 -56.996655 816.57654 4284910949
136.18895 -56.909466 816.56964 4284516965
136.7392 -56.993809 816.55267 4285304679
137.10655 -56.909901 816.54675 4284975976
137.65833 -56.995995 816.5379 4285302892
138.02904 -56.913727 816.55261 4285761133
138.58662 -57.001308 816.57581 4284841320
138.96286 -56.920303 816.62488 4284314721
139.52711 -57.010761 816.68573 4283984986
139.90637 -56.92997 816.7522 4283720274
140.47374 -57.021252 816.82837 4283259974
140.85336 -56.942272 816.89746 4282603074
141.41869 -57.030163 816.95917 4282405182
141.79469 -56.945877 817.00629 4282995268
142.35571 -57.033817 817.03912 4282929987
142.72961 -56.953354 817.07892 4282470462
143.28929 -57.042542 817.1004 4282732862
143.66188 -56.95993 817.13367 4282732606
144.22414 -57.04631 817.16766 4282535485
144.60147 -56.964901 817.22827 4282272828
145.17189 -57.057884 817.30994 4282272830
145.556 -56.981155 817.40759 4282206782
146.13385 -57.074596 817.52838 4282599230
146.5239 -56.996956 817.6593 4282599740
147.10785 -57.092724 817.80768 4282272570
147.49902 -57.019207 817.94684 4282141242
148.08195 -57.115696 818.08411 4282074939
148.46869 -57.038792 818.19763 4282206267
149.04778 -57.130676 818.30969 4282074425
149.42966 -57.051167 818.39612 4281811511
150.00517 -57.144836 818.48889 4281745717
150.38503 -57.067005 818.565 4281614133
150.95917 -57.157833 818.64728 4281679156
151.34224 -57.078461 818.73999 4281744690
151.92079 -57.170815 818.84369 4281678643
152.31064 -57.093998 818.97266 4281612592
152.89531 -57.188969 819.10565 4281219118
153.28825 -57.114464 819.25073 4281415468
153.87471 -57.210323 819.39294 4280890409
154.26578 -57.136318 819.53369 4280758824
154.84734 -57.229839 819.64398 4280823334
155.22697 -57.153316 819.72589 4280692005
155.79236 -57.239578 819.73511 4280691494
156.16736 -57.159649 819.79846 4280559651
156.73985 -57.24202 819.82983 4280230688
157.10463 -57.156059 819.84521 4280099356
157.66565 -57.247269 819.86835 4279835673
158.03357 -57.172058 819.89771 4279638293
158.5972 -57.259678 819.91235 4279309585
158.97603 -57.18071 819.99188 4279112207
5.9183302 -56.921032 822.578 4278979849
6.3830547 -56.901058 822.01282 4279243276
6.8345652 -56.844254 821.52069 4279440911
7.2955441 -56.829945 820.97589 4279572753
7.7521501 -56.761925 820.34241 4279704850
8.2048836 -56.749149 819.77155 4279771157
8.6674891 -56.68438 819.27789 4280034327
9.1150055 -56.684967 818.89673 4280297500
9.5823278 -56.632523 818.58417 4280363292
10.027644 -56.644646 818.35651 4280166426
10.495617 -56.602131 818.18719 4279838489
10.947294 -56.622307 818.05634 4280231710
11.410182 -56.59322 817.96375 4280496166
11.86799 -56.610821 817.87067 4281875764
12.326173 -56.579128 817.79272 4282011197
12.790294 -56.591927 817.7113 4282932039
13.241232 -56.566166 817.61591 4282876516
13.703558 -56.579395 817.51031 4288196734
14.124865 -56.565281 817.37878 4291362209
14.604415 -56.566589 817.24243 4294967295
14.995986 -56.568611 817.12994 4294967295
15.514201 -56.554035 817.05286 4294967295
15.910845 -56.558334 817.02661 4294967295
16.433554 -56.548103 817.05579 4294967295
16.871679 -56.541943 817.14124 4294967288
17.36714 -56.558075 817.30817 4286817154
17.825781 -56.553459 817.51038 4280904528
18.288248 -56.59449 817.73706 4281812279
18.755655 -56.591591 817.97369 4280432939
19.213223 -56.63792 818.22089 4280166431
19.681511 -56.631252 818.48499 4279706138
20.141726 -56.677299 818.79181 4279704597
20.611149 -56.674458 819.10364 4279375890
21.07719 -56.721542 819.4455 4279506706
21.545319 -56.72646 819.83173 4279441170
22.014256 -56.765491 820.09503 4279244047
22.482107 -56.754841 820.26831 4279177997
22.944311 -56.791328 820.4549 4279111948
23.420887 -56.765606 820.52802 4279177227
101.61838 -57.002285 823.12628 4280099096
102.10937 -56.956703 822.98993 4280165402
102.50486 -56.977985 822.77881 4280296986
102.9836 -56.936409 822.61401 4280494107
103.36944 -56.938789 822.28149 4280625693
103.81619 -56.890633 821.93079 4280756765
104.22021 -56.895287 821.69196 4280428571
104.67598 -56.849007 821.42865 4280164630
105.0863 -56.855934 821.245 4279769618
105.5565 -56.828617 821.09375 4279310095
105.97527 -56.85424 820.97626 4279375375
106.45006 -56.826374 820.87006 4279375631
106.86969 -56.840256 820.75439 4279441168
107.34094 -56.805275 820.61255 4279375633
107.75595 -56.819721 820.46796 4279375890
108.22475 -56.780457 820.29181 4279507219
108.63367 -56.793556 820.11945 4279573012
109.10172 -56.753323 819.92517 4279704597
109.50613 -56.767197 819.73889 4279770646
109.97623 -56.727249 819.54932 4279836183
110.38094 -56.74427 819.37909 4279770903
110.85524 -56.70446 819.21173 4279902233
111.26346 -56.721638 819.07471 4279968026
111.74389 -56.682465 818.95679 4279968537
112.159 -56.705585 818.86926 4279968538
112.64568 -56.675663 818.79712 4279903258
113.06365 -56.697742 818.73297 4280034843
113.54961 -56.665691 818.66675 4280231964
113.96802 -56.687759 818.59918 4280363037
114.451 -56.655239 818.5097 4280494877
114.86467 -56.676041 818.41144 4280757793
115.34158 -56.641514 818.28223 4280889889
115.75194 -56.656178 818.15454 4280890403
116.22473 -56.621258 818.00781 4280891173
116.63566 -56.633778 817.8764 4281153576
117.10824 -56.601257 817.74152 4281482539
117.52406 -56.618484 817.63763 4281614382
118.00179 -56.592373 817.54865 4281745454
118.42612 -56.608204 817.49768 4281876782
118.91017 -56.584862 817.46387 4282205743
119.34093 -56.604584 817.45764 4282272054
119.82943 -56.58522 817.45197 4282403897
120.26183 -56.608467 817.45667 4282273337
120.7498 -56.590107 817.44287 4282471742
121.17677 -56.606251 817.41522 4282471741
121.65936 -56.579842 817.35913 4283129156
122.07905 -56.59536 817.28955 4283588424
122.55673 -56.568336 817.19421 4283982405
122.97191 -56.584656 817.10321 4284574287
123.44915 -56.558105 817.00348 4284706633
123.86627 -56.573948 816.92633 4284838483
124.34731 -56.549259 816.85211 4285300567
124.76913 -56.566753 816.80841 4286089824
125.25792 -56.542461 816.7868 4286749533
125.686 -56.562477 816.78259 4287405927
126.17814 -56.543365 816.78278 4288326765
126.60777 -56.563416 816.78534 4289771387
127.10011 -56.544624 816.79102 4288990332
127.52782 -56.563831 816.7829 4291819173
128.01642 -56.542912 816.75952 4294967270
128.43762 -56.561253 816.71741 4294967276
128.92267 -56.538342 816.66376 4294967274
129.34187 -56.556881 816.61273 4294967285
129.82693 -56.530602 816.55609 4294967295
130.2439 -56.546955 816.49774 4294967295
130.73149 -56.525307 816.4516 4294967295
131.15308 -56.546848 816.41992 4294967295
131.64543 -56.525978 816.40778 4294967295
132.0721 -56.546848 816.40906 4294246396
132.56795 -56.526821 816.4184 4293853172
132.99783 -56.548248 816.43933 4294246377
133.49722 -56.530796 816.47015 4292540115
133.92799 -56.555275 816.49725 4290962368
134.42719 -56.537277 816.51984 4291156657
134.85452 -56.560257 816.52557 4289774758
135.35182 -56.540085 816.53436 4287409807
135.77553 -56.55695 816.5238 4286619517
136.26979 -56.530888 816.50946 4286227064
136.69133 -56.549561 816.48859 4285831027
137.18571 -56.530121 816.47668 4285568366
137.60857 -56.552307 816.46503 4285501804
138.10672 -56.534718 816.47467 4285764976
138.53435 -56.556484 816.48969 4285435506
139.03813 -56.538132 816.53461 4285500021
139.4718 -56.563614 816.58246 4285236074
139.97913 -56.549309 816.64575 4284970077
140.41537 -56.575001 816.70886 4284639833
140.92398 -56.55946 816.77533 4284048459
141.35785 -56.582489 816.82825 4283062342
141.86327 -56.562519 816.87158 4282603334
142.29201 -56.585415 816.89691 4282865476
142.79605 -56.569302 816.9281 4282931522
143.22203 -56.592175 816.93988 4282996545
143.72453 -56.571781 816.96033 4283127617
144.15184 -56.59375 816.98114 4282930242
144.65907 -56.577267 817.02838 4282601792
145.09438 -56.604111 817.09314 4282338620
145.60916 -56.590496 817.1825 4282600766
146.05124 -56.617184 817.28461 4282731585
146.57375 -56.604866 817.41382 4282403134
147.02022 -56.634914 817.5434 4282338364
147.54584 -56.625168 817.68256 4282666300
147.99033 -56.655853 817.80133 4282534974
148.51135 -56.642639 817.91119 4282403647
148.95123 -56.669357 818.0069 4282075964
149.46759 -56.653641 818.08551 4282074684
149.90454 -56.681698 818.16168 4281877816
150.41812 -56.667892 818.22723 4281942839
150.85475 -56.694557 818.30188 4282008376
151.37311 -56.678558 818.38953 4281680182
151.814 -56.706013 818.48706 4281679667
152.34061 -56.694725 818.61859 4281614128
152.78685 -56.724716 818.74805 4281548336
153.31993 -56.71558 818.90839 4281285681
153.76953 -56.748795 819.06 4281088557
154.30391 -56.736645 819.21844 4280956460
154.74863 -56.770512 819.34967 4280955690
155.27763 -56.758789 819.46912 4280692520
155.70306 -56.790569 819.51727 4280626726
156.22838 -56.766209 819.6015 4280429095
156.65469 -56.792706 819.6488 4280363299
157.164 -56.772114 819.6687 4280362273
157.59099 -56.800346 819.70935 4280033564
158.09233 -56.767609 819.67273 4279835929
158.50581 -56.799877 819.66095 4279573013
159.01753 -56.78334 819.69684 4279178770
159.43187 -56.800018 819.6521 4279112463
6.3727837 -56.388683 821.56525 4279243277
6.7905402 -56.27758 821.21881 4279440911
7.2931771 -56.330086 820.78156 4279638545
7.7061276 -56.21661 820.34332 4279705107
8.2100191 -56.259296 819.75897 4279771413
8.6204033 -56.140114 819.27386 4280100376
9.1255188 -56.19413 818.88873 4280494365
9.5358515 -56.087982 818.58478 4280494622
10.037909 -56.155483 818.35962 4280298012
10.451842 -56.057953 818.198 4279772442
10.953173 -56.137634 818.07385 4280231963
11.366682 -56.048824 817.98578 4280824617
11.869245 -56.127819 817.89465 4282204469
12.283402 -56.033836 817.81586 4282339390
12.784002 -56.114635 817.7384 4283130694
13.197528 -56.021488 817.63635 4284054885
13.679008 -56.110115 817.53009 4286884443
14.081448 -56.022064 817.38879 4289261227
14.554929 -56.109192 817.25226 4294967295
14.985404 -56.010685 817.1344 4294967295
15.461743 -56.10059 817.05713 4294967295
15.903499 -56.000568 817.03033 4294967295
16.409834 -56.080986 817.06244 4294967295
16.855043 -55.982758 817.14795 4292277188
17.36265 -56.079647 817.32013 4286751342
17.78068 -56.008499 817.51855 4282539851
18.291176 -56.113602 817.75336 4281943853
18.709383 -56.046513 817.98999 4280432169
19.218496 -56.153812 818.24982 4280231967
19.63521 -56.087349 818.51929 4279836698
20.147106 -56.195854 818.84326 4279770133
20.565466 -56.130939 819.15405 4279375890
21.078812 -56.242691 819.5094 4279441169
21.499495 -56.18224 819.88025 4279441169
22.013847 -56.287624 820.14191 4279178254
22.433029 -56.211712 820.3017 4279112204
22.943834 -56.311363 820.48816 4279046155
23.364529 -56.225506 820.54974 4279045898
102.68766 -56.753658 824.078 4279835924
103.03049 -56.474388 823.77618 4279967252
103.50518 -56.51767 823.16931 4279967765
103.83305 -56.414051 822.80188 4280098837
104.33391 -56.452461 822.33362 4279836180
104.67122 -56.342464 822.02039 4279573009
105.19116 -56.418804 821.85364 4279309582
105.55075 -56.33107 821.70764 4279243533
106.07964 -56.415081 821.60492 4279177996
106.4506 -56.323673 821.54413 4279178253
106.98058 -56.39999 821.41901 4279178253
107.34107 -56.306305 821.2796 4279244047
107.86668 -56.378761 821.11121 4279309839
108.21738 -56.278133 820.90179 4279375376
108.73706 -56.347343 820.68683 4279441168
109.08562 -56.248795 820.47949 4279507218
109.60558 -56.316376 820.25763 4279638803
109.95386 -56.219074 820.0553 4279704340
110.47682 -56.288727 819.85529 4279704597
110.82651 -56.194035 819.67975 4279836183
111.35618 -56.265087 819.51849 4279836439
111.71117 -56.172634 819.38904 4279771159
112.24737 -56.24551 819.28247 4279902488
112.60807 -56.159233 819.19336 4279836953
113.14833 -56.238579 819.11499 4279837465
113.51141 -56.148045 819.03473 4279968794
114.04916 -56.224983 818.9541 4280034329
114.41204 -56.13443 818.85565 4280165659
114.94331 -56.211784 818.74078 4280362779
115.30133 -56.116428 818.61041 4280363549
115.82814 -56.191166 818.46124 4280430112
116.18137 -56.097214 818.31335 4280429857
116.70753 -56.170738 818.16083 4280561441
117.0615 -56.076347 818.02338 4280758820
117.59232 -56.154926 817.9024 4280956967
117.95207 -56.064625 817.80908 4281153320
118.49054 -56.143082 817.74628 4281219111
118.85833 -56.055515 817.70709 4281679144
119.40408 -56.140862 817.69324 4281614378
119.77573 -56.055691 817.67914 4281418285
120.32283 -56.142887 817.67676 4281681455
120.69356 -56.058083 817.65436 4281944118
121.23574 -56.139919 817.61603 4282075449
121.59984 -56.048988 817.55286 4282469695
