# .PCD v0.7 - Point Cloud Data file format
VERSION 0.7
FIELDS x y z rgb
SIZE 4 4 4 4
TYPE F F F U
COUNT 1 1 1 1
WIDTH 1147
HEIGHT 1
VIEWPOINT 0 0 0 1 0 0 0
POINTS 1147
DATA ascii
166.24588 -71.20768 837.16547 4279771416
166.58267 -71.190987 836.68933 4280166943
167.01622 -71.138954 836.2785 4280693542
167.38341 -71.133423 835.95947 4281088556
167.84866 -71.092224 835.70978 4281548594
168.24188 -71.098427 835.52606 4281680692
168.73119 -71.06752 835.39526 4282008889
169.14272 -71.080048 835.30566 4282009404
169.64841 -71.056831 835.25385 4282074942
170.07347 -71.075912 835.23407 4281747257
170.59508 -71.056137 835.25836 4281549109
171.03738 -71.082359 835.32336 4281219887
171.57584 -71.073341 835.42822 4280825642
172.03081 -71.108078 835.55585 4280693543
172.58597 -71.107246 835.73755 4280627750
173.0519 -71.146721 835.91718 4280364325
173.59515 -71.136795 836.04083 4280231716
174.04776 -71.164993 836.15576 4279902749
174.58667 -71.156319 836.25525 4279441940
193.93098 -72.079956 846.63898 4279045642
193.33385 -71.649094 841.76123 4278717192
193.46358 -71.493874 840.00641 4278652426
193.82098 -71.490723 839.71582 4278981133
194.27255 -71.443428 839.39172 4279309842
194.63463 -71.439545 839.11633 4279507477
195.10756 -71.400719 838.88654 4279769879
195.49484 -71.408035 838.72174 4279901209
196.00562 -71.383469 838.65344 4279967000
196.42621 -71.403839 838.63605 4279770648
196.95793 -71.386917 838.65649 4279770648
197.38179 -71.410362 838.65253 4279770648
197.90761 -71.388992 838.64703 4279836184
198.31393 -71.404297 838.56812 4279704856
198.83557 -71.379112 838.54456 4279573014
199.24976 -71.396751 838.4989 4279375634
199.75905 -71.371368 838.42242 4278719759
165.55075 -71.415642 845.36163 4278387456
165.35435 -71.045357 842.16058 4278256899
165.21172 -70.896568 839.12067 4278651911
165.35204 -70.711075 837.98383 4279112463
165.81288 -70.752998 837.37946 4279507732
166.07971 -70.618797 836.87048 4279772186
166.56453 -70.675339 836.39777 4280233250
166.86049 -70.554291 836.02887 4280825386
167.37303 -70.620049 835.70789 4281220657
167.69777 -70.508911 835.48828 4281549877
168.2372 -70.587547 835.30066 4281812794
168.58199 -70.487663 835.18524 4282206524
169.14151 -70.572449 835.09668 4282009403
169.50078 -70.475311 835.05518 4281944122
170.07539 -70.566963 835.04047 4281944123
170.44829 -70.477081 835.06622 4281877815
171.04141 -70.577003 835.14008 4281548594
171.42932 -70.494987 835.23944 4281088557
172.03653 -70.60273 835.38104 4280825386
172.43919 -70.528061 835.55127 4280759338
173.0647 -70.640327 835.77673 4280561449
173.45746 -70.559372 835.89941 4280494629
174.06772 -70.662903 836.04755 4279968285
174.45982 -70.58522 836.16632 4279573268
193.33577 -71.550514 846.10492 4279374350
192.94844 -71.006935 839.84711 4278717703
193.20656 -70.875809 839.38824 4278849548
193.72058 -70.945404 839.07404 4279178512
194.01447 -70.8265 838.77118 4279507220
194.51089 -70.883888 838.37756 4279704857
194.81261 -70.768661 838.11078 4280033050
195.34955 -70.846352 837.89136 4280098330
195.69014 -70.747742 837.797 4280099098
196.26341 -70.834145 837.73431 4280033819
196.62801 -70.744331 837.74255 4280099612
197.22583 -70.842659 837.78406 4279968283
197.60486 -70.755852 837.8526 4279902490
198.20195 -70.849907 837.88953 4279967770
198.57028 -70.759087 837.91479 4279967769
199.16199 -70.862968 837.92682 4279704856
199.5295 -70.76532 837.94666 4279375891
200.11821 -70.856956 837.94623 4279047948
165.35194 -70.842812 843.9917 4278387457
165.26587 -70.597641 841.31274 4278388739
165.0145 -70.380554 838.35352 4278783497
165.40051 -70.303368 837.68866 4279178768
165.71599 -70.275734 837.11487 4279639574
166.13434 -70.217972 836.62439 4279969565
166.47606 -70.20594 836.17462 4280496421
166.91542 -70.156647 835.79382 4281023022
167.28877 -70.152763 835.50861 4281418549
167.75845 -70.113678 835.28162 4282009914
168.15475 -70.122047 835.1156 4282010685
168.64622 -70.092735 834.9964 4282075964
169.06059 -70.106415 834.92206 4281878330
169.56827 -70.082024 834.88159 4281943863
169.99614 -70.103203 834.87561 4282075450
170.51851 -70.085815 834.90552 4282009145
170.96303 -70.113739 834.98059 4281745973
171.50154 -70.105484 835.08917 4281483056
171.95926 -70.139908 835.22845 4281088557
172.51498 -70.136909 835.41644 4281021997
172.96648 -70.17067 835.52417 4280758826
173.5081 -70.157677 835.64386 4280494886
173.96149 -70.190689 835.76031 4279902748
191.5676 -70.50042 840.14197 4279505684
192.36096 -70.502899 839.40778 4278718216
192.77252 -70.509445 839.32135 4278848778
193.15544 -70.436279 838.69385 4278981133
193.53085 -70.437988 838.47931 4279310098
193.96953 -70.385368 838.10358 4279639062
194.31461 -70.376823 837.75824 4279836697
194.78226 -70.340111 837.50745 4280033563
195.16389 -70.348511 837.32184 4280099356
195.6694 -70.319817 837.23492 4280165404
196.0863 -70.338341 837.20581 4280034589
196.61621 -70.320168 837.22119 4280165919
197.04999 -70.348022 837.26447 4280165918
197.60034 -70.336609 837.36395 4280099869
198.04379 -70.361092 837.44757 4279968540
198.5932 -70.347458 837.54272 4280033820
199.02856 -70.376381 837.59155 4279968027
199.56839 -70.360542 837.64447 4279639319
200.00447 -70.387207 837.69916 4279441684
164.77829 -69.883194 839.76202 4278388741
164.97327 -69.855667 837.93964 4278915083
165.23058 -69.713387 837.39368 4279310354
165.70114 -69.762665 836.83789 4279705880
165.97878 -69.637199 836.38373 4280167201
166.46799 -69.694481 835.93378 4280759851
166.76819 -69.575203 835.58777 4281417780
167.28708 -69.643471 835.2995 4281681980
167.61549 -69.535095 835.09906 4282404673
168.15791 -69.615311 834.92877 4282274628
168.50525 -69.516632 834.8255 4282011455
169.06694 -69.602173 834.75049 4281551929
169.42876 -69.506523 834.72028 4281682747
170.00525 -69.598129 834.7179 4282208062
170.37952 -69.509285 834.74951 4282140988
170.97388 -69.61084 834.83203 4281680950
171.36255 -69.529839 834.93512 4281352242
171.97179 -69.63681 835.08759 4281351729
172.37662 -69.561256 835.26886 4281219374
172.98218 -69.666138 835.39886 4280824619
173.37262 -69.583786 835.51239 4280494885
173.98143 -69.68882 835.65387 4279902488
190.85898 -69.777328 837.52972 4279834649
191.40691 -69.86055 837.36591 4279243797
191.86815 -69.811569 837.74664 4278849292
192.45984 -69.890358 837.75256 4278980618
192.79784 -69.779831 837.63684 4278981647
193.37437 -69.872017 837.59601 4279376404
193.6844 -69.759338 837.36603 4279836696
194.20116 -69.827538 837.06158 4279968283
194.51247 -69.719055 836.84052 4279968282
195.05212 -69.796127 836.63513 4280033818
195.39374 -69.69973 836.54883 4279968796
195.97131 -69.788872 836.5072 4280034589
196.33588 -69.698112 836.51917 4280231711
196.93721 -69.795525 836.5769 4280363297
197.32498 -69.71286 836.6864 4280231967
197.94975 -69.816895 836.8429 4280034845
198.3522 -69.739281 837.01294 4280100125
198.9693 -69.851723 837.13483 4280296734
199.35612 -69.761253 837.2403 4280099611
199.97409 -69.863434 837.36353 4279705111
165.0051 -69.733276 841.98315 4278453506
164.87065 -69.525223 839.79785 4278520582
164.85905 -69.374191 837.58832 4279046668
165.29254 -69.311508 837.16522 4279507988
165.61006 -69.291489 836.60089 4279969052
166.03589 -69.236588 836.1499 4280496164
166.38707 -69.225922 835.74908 4281220144
166.83105 -69.178978 835.39288 4281943866
167.21037 -69.180992 835.13873 4282208065
167.68225 -69.145996 834.93268 4282668099
168.08344 -69.154839 834.78223 4282866248
168.57387 -69.12751 834.67694 4282997576
168.99382 -69.141632 834.61292 4282603334
169.50002 -69.120239 834.58478 4282734405
169.93367 -69.137733 834.58936 4282668102
170.45525 -69.119934 834.62561 4282273344
170.90271 -69.150108 834.70764 4281944381
171.44148 -69.143272 834.81848 4281812281
171.90097 -69.178291 834.96667 4281549367
172.45886 -69.173546 835.16608 4281285424
172.91209 -69.206528 835.28107 4280824875
173.45558 -69.193886 835.41132 4280298278
173.91212 -69.230888 835.54083 4279836953
192.27089 -70.198471 847.17657 4278784006
190.91194 -69.36364 837.21075 4280032032
191.3085 -69.377106 837.09326 4279638038
191.87268 -69.388824 837.2851 4278981133
192.28613 -69.397385 837.21649 4279046413
192.77515 -69.355949 837.06598 4279113489
193.19197 -69.371399 837.03259 4279442709
193.65642 -69.329124 836.76965 4279968539
194.02576 -69.331711 836.5329 4279968796
194.505 -69.297493 836.33502 4279837211
194.8891 -69.30706 836.16418 4279968540
195.39526 -69.2798 836.08246 4280034845
195.81166 -69.29908 836.05304 4279969309
196.34015 -69.279243 836.06531 4280100639
196.77504 -69.30732 836.11639 4280232224
197.32849 -69.296577 836.23132 4280232480
197.78584 -69.327942 836.37775 4280035101
198.36345 -69.323593 836.59326 4280166174
198.83405 -69.366058 836.79413 4280297503
199.39615 -69.357559 836.94226 4280231198
199.85204 -69.39048 837.08276 4279837210
200.40877 -69.378555 837.20355 4279705369
165.34645 -69.677254 848.47937 4278190338
164.44975 -68.825508 838.19354 4278651912
164.83008 -68.854469 837.23883 4279244046
165.13333 -68.722832 836.89526 4279574038
165.60854 -68.783905 836.39117 4280101406
165.89047 -68.657921 835.95093 4280759849
166.38536 -68.719429 835.54718 4281484086
166.69081 -68.603065 835.22723 4282404673
167.21315 -68.676262 834.96973 4282603336
167.54645 -68.57061 834.78888 4282867276
168.08902 -68.653702 834.63635 4283459156
168.44072 -68.557175 834.54602 4283590742
169.00256 -68.644814 834.48077 4283393880
169.36929 -68.547775 834.46051 4283524438
169.9463 -68.637772 834.46747 4283064402
170.3243 -68.548149 834.50555 4282734410
170.91838 -68.651497 834.59137 4282339653
171.30957 -68.570793 834.69714 4282273089
171.91965 -68.675201 834.85468 4281747004
172.32545 -68.599236 835.04083 4281286195
172.93216 -68.705475 835.17639 4280759596
173.32239 -68.62101 835.29297 4280429092
173.93358 -68.730186 835.44305 4279771157
190.7355 -68.783829 836.96429 4280754465
191.28398 -68.862083 836.80194 4280490781
191.65952 -68.787712 836.84412 4279374608
192.21497 -68.863663 836.70996 4279244046
192.52776 -68.743904 836.48657 4279310868
193.0928 -68.82692 836.39703 4279640089
193.39792 -68.717102 836.14771 4279903260
193.93486 -68.792053 835.93335 4279903261
194.25758 -68.688484 835.76367 4280034333
194.8042 -68.765793 835.59198 4280034590
195.14911 -68.667847 835.52136 4280034846
195.72878 -68.759842 835.49213 4279969310
196.09419 -68.673805 835.50946 4280166432
196.69608 -68.768822 835.57239 4280166945
197.08524 -68.683891 835.69098 4280101152
197.71426 -68.790977 835.867 4280035615
198.12857 -68.721725 836.09021 4280297759
198.78424 -68.838081 836.375 4280363552
199.18234 -68.759346 836.53076 4280231966
199.81941 -68.868279 836.7359 4279968540
200.21124 -68.787163 836.86523 4279967771
165.28963 -69.218384 847.63885 4278191363
164.52034 -68.605309 839.75 4278519556
164.59279 -68.476128 838.45038 4278783753
164.7704 -68.39666 837.16199 4279375889
165.20856 -68.337036 836.77423 4279706392
165.52626 -68.315079 836.19836 4280364321
165.95126 -68.262848 835.75183 4281155118
166.31166 -68.256287 835.39117 4281879354
166.75838 -68.212334 835.06616 4282865480
167.14406 -68.215874 834.83777 4283392338
167.61679 -68.184196 834.65424 4284181595
168.02484 -68.1922 834.52161 4284577123
168.51448 -68.170647 834.43158 4285036391
168.93979 -68.187294 834.37646 4284512105
169.4445 -68.165466 834.35938 4284182885
169.88522 -68.178566 834.3728 4283591258
170.40504 -68.164658 834.41724 4283130447
170.85623 -68.194283 834.50208 4282669130
171.39398 -68.185707 834.61548 4282208581
171.85585 -68.21891 834.76782 4281682492
172.41582 -68.215683 834.97882 4281286964
172.87057 -68.248795 835.10077 4280694058
173.4153 -68.238495 835.23816 4279970082
173.87598 -68.276314 835.38287 4279836694
191.36714 -68.902878 843.02789 4278718211
190.98729 -68.602722 839.1828 4279310354
190.89359 -68.423622 837.17999 4280622630
191.21176 -68.399765 836.69281 4280820261
191.74437 -68.400848 836.73718 4279703057
192.0892 -68.39682 836.38147 4279309840
192.54829 -68.339249 836.10126 4279508504
192.94167 -68.342155 835.96936 4279771931
193.40312 -68.297073 835.69489 4280034589
193.78175 -68.304901 835.50201 4279903517
194.26678 -68.273514 835.33044 4279969310
194.6554 -68.284859 835.18213 4280100382
195.16426 -68.257782 835.11414 4280166173
195.58105 -68.278206 835.08881 4280231968
196.11073 -68.258537 835.1084 4280363810
196.5462 -68.282768 835.16418 4280298530
197.10077 -68.268623 835.28711 4280298531
197.55856 -68.304596 835.43738 4280298529
198.14195 -68.309662 835.67969 4280364064
198.62596 -68.354164 835.93805 4280364064
199.19592 -68.346016 836.12115 4280494880
199.66496 -68.383904 836.31934 4280166175
200.22791 -68.375374 836.46844 4279836956
165.31679 -68.661316 847.62976 4278190851
164.25224 -67.815544 837.25195 4278980877
164.72122 -67.869545 836.70917 4279639059
165.03281 -67.746796 836.41785 4279903514
165.52728 -67.811935 836.00208 4280496419
165.81451 -67.687508 835.58893 4281352753
166.31487 -67.752335 835.22241 4282077502
166.62692 -67.639366 834.93488 4283064140
167.15205 -67.716064 834.70435 4283984475
167.49019 -67.612419 834.54352 4285496171
168.03322 -67.69735 834.41034 4285761402
168.38916 -67.599861 834.33307 4285894012
168.9511 -67.689972 834.27631 4285630588
169.32118 -67.595055 834.26459 4285300850
169.89859 -67.686127 834.28052 4284249187
170.28085 -67.596786 834.32581 4283263060
170.87465 -67.698898 834.41455 4283195468
171.26775 -67.61441 834.52026 4282603079
171.87784 -67.719345 834.67877 4281879870
172.28671 -67.645164 834.87384 4281221428
172.89377 -67.749725 835.01135 4280694058
173.28441 -67.66758 835.13098 4280166688
173.89908 -67.775993 835.29474 4279771409
191.51489 -68.378067 843.69055 4278192643
190.66331 -67.824066 836.64539 4281279780
191.18158 -67.886024 836.35272 4281016098
191.52484 -67.80851 836.27155 4279638292
192.05841 -67.877449 836.0412 4279441940
192.34766 -67.74942 835.72675 4279639834
192.88286 -67.812927 835.5083 4279837725
193.18156 -67.696808 835.23303 4279969310
193.71718 -67.772957 835.01599 4279969310
194.04274 -67.672493 834.86066 4280100638
194.59511 -67.753845 834.71576 4280100894
194.94313 -67.660187 834.65955 4280035615
195.52425 -67.749344 834.63831 4280298273
195.89099 -67.65934 834.66327 4280364580
196.49309 -67.752647 834.72943 4280561447
196.88136 -67.671585 834.8465 4280758054
197.50761 -67.78019 835.01263 4280626724
197.91969 -67.710754 835.22894 4280298785
198.57919 -67.827385 835.53143 4280429601
198.97801 -67.74823 835.69165 4280429601
199.61984 -67.858803 835.91846 4280231968
200.01637 -67.78019 836.06915 4280034075
164.12207 -67.529396 838.16962 4278782984
164.40842 -67.458908 837.53534 4279244305
164.69492 -67.422836 836.80011 4279770903
165.13171 -67.368317 836.40485 4280166685
165.45149 -67.348091 835.84119 4280956456
165.87959 -67.297409 835.41974 4281813046
166.24702 -67.290054 835.08783 4282472000
166.69727 -67.250496 834.79999 4283918930
167.08969 -67.256218 834.59546 4284905828
167.56255 -67.228561 834.43524 4286089076
167.9772 -67.237785 834.32281 4286880394
168.4669 -67.217552 834.24799 4287930522
168.89684 -67.233566 834.20172 4286684047
169.40016 -67.215515 834.19269 4285696382
169.84744 -67.228172 834.21497 4284644203
170.36575 -67.214737 834.26562 4283789401
170.82133 -67.242172 834.35242 4283459410
171.35687 -67.232758 834.46442 4282998604
171.81844 -67.264389 834.60553 4281945664
172.35417 -67.254303 834.6991 4281221430
172.80182 -67.281609 834.78931 4280693801
173.33701 -67.270256 834.87573 4279904800
191.40962 -67.909775 842.67572 4278323714
191.08955 -67.723808 839.84265 4278915595
190.84381 -67.469093 836.97723 4279900696
191.11823 -67.437599 836.2962 4279900951
191.60922 -67.412476 836.16962 4279375890
191.94685 -67.408951 835.784 4279507734
192.38509 -67.345245 835.41388 4279771420
192.75023 -67.337662 835.16058 4279969311
193.20517 -67.289322 834.86078 4280297505
193.58194 -67.295601 834.6615 4280100640
194.06831 -67.261108 834.49768 4280100894
194.46146 -67.274773 834.37103 4280166687
194.97261 -67.25235 834.31476 4280298530
195.39029 -67.274261 834.29407 4280430117
195.92114 -67.251923 834.32172 4280758825
196.35718 -67.274559 834.38116 4280627496
196.91051 -67.263474 834.50159 4280626982
197.36569 -67.301414 834.64233 4280692518
197.94333 -67.300186 834.86243 4280626723
198.42293 -67.341553 835.10315 4280495394
198.98705 -67.334625 835.26495 4280495138
199.44902 -67.372421 835.43298 4280166431
200.00987 -67.359978 835.57751 4279902493
164.084 -67.069061 839.84167 4278257411
164.2095 -66.86084 837.05548 4279573012
164.65923 -66.902367 836.4165 4279968538
164.94771 -66.77726 836.00659 4280429857
165.45512 -66.845993 835.66583 4281154346
165.74921 -66.723351 835.28577 4281551159
166.25185 -66.789917 834.94513 4282473282
166.57166 -66.679688 834.69189 4283658070
167.09792 -66.761406 834.48492 4285499243
167.44139 -66.659599 834.34271 4286814591
167.98711 -66.74588 834.2334 4287866783
168.34749 -66.647614 834.17053 4290623918
168.91016 -66.73893 834.12616 4287736231
169.28369 -66.645424 834.12311 4286880651
169.86172 -66.73999 834.15033 4284974707
170.24875 -66.64978 834.2027 4284118369
170.842 -66.749878 834.29388 4283853655
171.23705 -66.663963 834.39709 4282801740
171.84937 -66.771118 834.5683 4281880385
172.23822 -66.6894 834.6582 4281483318
172.83836 -66.787895 834.76569 4280890154
173.22484 -66.707062 834.8623 4280100893
191.36908 -67.309258 842.44855 4278387969
191.04199 -67.470345 839.91718 4278455042
190.72058 -66.900612 836.91656 4278390279
191.13359 -66.927719 836.16272 4279178252
191.44456 -66.83284 835.9422 4279375890
191.92827 -66.888115 835.49646 4279508760
192.2007 -66.758011 835.10852 4279968798
192.70824 -66.814674 834.771 4280035362
193.00385 -66.698975 834.4845 4280298018
193.53781 -66.771103 834.26227 4280101152
193.86552 -66.669785 834.11731 4280101152
194.42229 -66.753647 833.99487 4280364322
194.77292 -66.661949 833.95093 4280626982
195.35431 -66.749542 833.9328 4280693033
195.72182 -66.660049 833.96246 4281087276
196.3233 -66.756905 834.02832 4280628010
196.70915 -66.67662 834.13647 4280561702
197.33113 -66.779037 834.28693 4280692774
197.73491 -66.704475 834.46948 4280758053
198.38101 -66.817253 834.7179 4280626724
198.75955 -66.735573 834.79474 4280495138
199.37535 -66.837738 834.91309 4280231713
199.75499 -66.751602 834.99707 4280230429
200.34651 -66.843773 835.00433 4279441937
163.79224 -66.612587 839.23688 4278389252
163.95862 -66.566673 837.88574 4278980875
164.33072 -66.488708 837.16193 4279508247
164.63992 -66.460266 836.54248 4280100380
165.05403 -66.402428 836.03894 4280562467
165.38737 -66.384277 835.53735 4281614642
165.8174 -66.336029 835.14484 4282274112
166.19064 -66.33078 834.83295 4283261777
166.64339 -66.297043 834.57983 4284775781
167.04201 -66.303207 834.39545 4286420856
167.51808 -66.275459 834.25458 4288523659
167.93562 -66.286926 834.16547 4289380258
168.43224 -66.264633 834.10822 4290494895
168.86143 -66.283211 834.07672 4289249961
169.37067 -66.26506 834.07947 4287802260
169.81902 -66.284042 834.11371 4285698167
170.34039 -66.270836 834.17169 4284513892
170.79733 -66.295525 834.26251 4284117340
171.33139 -66.284027 834.36786 4282735949
171.78999 -66.316193 834.48724 4281747773
172.32327 -66.30201 834.5694 4281089331
172.76752 -66.330086 834.64575 4280824360
173.30014 -66.319061 834.70911 4279838491
191.43205 -66.920517 842.31134 4278256640
191.14053 -66.852356 840.57172 4278519298
190.79124 -66.501373 836.74573 4278717700
191.04404 -66.46965 835.98969 4279112460
191.49336 -66.423836 835.67737 4279376917
191.81891 -66.418694 835.24756 4279640347
192.241 -66.352531 834.80847 4280100385
192.58534 -66.339767 834.46533 4280232484
193.03757 -66.291023 834.15631 4280429605
193.41289 -66.29879 833.95178 4280429604
193.901 -66.26664 833.79785 4280626980
194.29877 -66.28154 833.69263 4280758567
194.81232 -66.256523 833.64807 4281087018
195.23047 -66.276054 833.6322 4281087533
195.76236 -66.256195 833.66559 4281087533
196.19833 -66.28479 833.72607 4280693801
196.74959 -66.273857 833.84009 4280628006
197.20259 -66.305534 833.97247 4280693286
197.7713 -66.297943 834.15686 4280692773
198.24142 -66.338112 834.36023 4280692261
198.78362 -66.325691 834.43097 4280757283
199.22633 -66.356628 834.51892 4280428834
199.76996 -66.338837 834.59491 4280033822
200.1937 -66.361732 834.59265 4279573266
163.83171 -66.051697 838.90405 4278454788
163.96382 -66.062508 837.71527 4279178252
164.18889 -65.91124 836.97284 4279705367
164.64977 -65.95768 836.39062 4280363549
164.92195 -65.829681 835.89642 4280825640
165.39574 -65.88385 835.39459 4282206777
165.69472 -65.763718 835.03851 4283129421
166.20042 -65.834129 834.71704 4283592540
166.52617 -65.727173 834.49182 4286090869
167.05606 -65.808746 834.30573 4287277449
167.40326 -65.706825 834.18042 4289314965
167.95555 -65.792717 834.09601 4291023017
168.31871 -65.695038 834.04852 4291091115
168.8848 -65.786674 834.02106 4290761647
169.25893 -65.697662 834.02979 4288919703
169.83917 -65.795593 834.0694 4286946173
170.22798 -65.705627 834.12848 4285368171
170.82219 -65.804527 834.2251 4284774754
171.21577 -65.718544 834.3197 4283392081
171.82814 -65.826767 834.49207 4281747516
172.2178 -65.742638 834.5802 4281023025
172.81654 -65.839798 834.6814 4280758308
173.20428 -65.76313 834.77765 4280100121
191.37198 -66.364624 842.42773 4278321921
190.54346 -65.899544 836.18579 4278586632
191.01474 -65.946014 835.66431 4279113489
191.30029 -65.842224 835.33972 4279639577
191.79338 -65.894104 834.93036 4279837727
192.05588 -65.762474 834.49896 4280363812
192.5533 -65.817978 834.11914 4280364327
192.85008 -65.70401 833.8385 4280626984
193.38448 -65.7798 833.62103 4280627495
193.71458 -65.682175 833.48767 4280759081
194.2755 -65.765541 833.38458 4280825130
194.62784 -65.673546 833.34961 4281022252
195.20987 -65.760658 833.33618 4281022509
195.57791 -65.672142 833.36884 4281022765
196.17888 -65.769173 833.43494 4280825643
196.56282 -65.689224 833.53558 4280562984
197.1817 -65.790169 833.67572 4280759335
197.57935 -65.711861 833.83209 4280692773
198.21478 -65.819511 834.03955 4280561188
198.59592 -65.740707 834.1272 4280560675
199.20531 -65.840462 834.22095 4280428577
199.58212 -65.754013 834.2948 4280165148
200.1788 -65.849533 834.32336 4279507984
164.451 -66.246834 846.30408 4278256385
163.93834 -65.779747 840.53009 4278453506
163.83386 -65.723938 839.47559 4278586372
163.90868 -65.605042 837.6499 4279244046
164.26794 -65.520088 836.8645 4279640088
164.57985 -65.49482 836.2569 4280495136
164.99132 -65.438705 835.74878 4281154603
165.33487 -65.425323 835.29211 4282602303
165.7672 -65.380417 834.92261 4283657301
166.14455 -65.377808 834.62909 4284448354
166.60176 -65.345673 834.40332 4286159739
167.00446 -65.352844 834.23767 4288133261
167.48564 -65.324898 834.11426 4290694819
167.90347 -65.339584 834.04651 4292012473
168.40773 -65.313698 834.00671 4292994999
168.83582 -65.334793 833.99084 4290829485
169.35158 -65.317322 834.00629 4289051036
169.79845 -65.341995 834.05103 4287603336
170.32439 -65.325638 834.11389 4285893998
170.78137 -65.351868 834.21191 4284643934
171.31363 -65.338753 834.30066 4283195471
171.76028 -65.366798 834.36243 4282206784
172.28996 -65.348679 834.42871 4281220402
172.73224 -65.377563 834.49329 4280626978
191.18652 -65.912407 841.63171 4278256641
190.62366 -65.494164 836.02417 4278849802
190.91724 -65.482811 835.45557 4279310610
191.3466 -65.425552 835.05743 4279771419
191.67874 -65.414856 834.65887 4280166690
192.09541 -65.353577 834.19568 4280626727
192.43628 -65.346207 833.83911 4280693289
192.89148 -65.302422 833.54517 4280890155
193.26872 -65.311836 833.34918 4281021997
193.75941 -65.279396 833.20941 4281154094
194.16122 -65.295036 833.12189 4281088815
194.67625 -65.271034 833.08606 4281088816
195.09601 -65.292427 833.0777 4281088815
195.6282 -65.273338 833.11383 4281285679
196.06442 -65.302673 833.17676 4281023022
196.61398 -65.290146 833.28436 4280891180
197.06482 -65.320549 833.40942 4280693543
197.62874 -65.310112 833.57434 4280496164
198.08977 -65.347549 833.74194 4280495652
198.64223 -65.339668 833.8559 4280626211
199.08591 -65.370338 833.9516 4280363297
199.63641 -65.354721 834.05249 4279837212
257.22928 -66.294182 844.49036 4278389766
164.30093 -65.633163 845.72577 4278256129
163.89577 -65.246864 840.25836 4278453760
163.75516 -65.116806 839.00098 4278520838
163.9294 -65.104568 837.55499 4279375631
164.14828 -64.951881 836.79102 4279968282
164.60043 -64.995743 836.1601 4280626977
164.869 -64.866402 835.64844 4281417775
165.34808 -64.924538 835.18256 4282865471
165.6505 -64.809288 834.8418 4283723859
166.15901 -64.883186 834.54004 4284713057
166.49004 -64.777344 834.33832 4286162300
167.02267 -64.860016 834.1709 4288726937
167.37384 -64.759781 834.06219 4291224238
167.93217 -64.845078 833.99927 4292474052
168.29871 -64.748955 833.96869 4292802491
168.86784 -64.840416 833.95813 4291617208
169.24397 -64.751709 833.97699 4290430625
169.82585 -64.849396 834.02484 4288390535
170.21501 -64.760139 834.08514 4285959791
170.80949 -64.859711 834.18365 4284709983
171.19925 -64.7743 834.25879 4283261774
171.78975 -64.873833 834.32428 4282797374
172.17213 -64.784653 834.38031 4281613618
172.7635 -64.880363 834.44171 4280626975
191.149 -65.322197 841.25885 4278322178
190.39589 -64.895409 835.55945 4278915596
190.87126 -64.946609 835.05573 4279507989
191.14864 -64.826797 834.69788 4280034333
191.64804 -64.889061 834.31763 4280363811
191.9122 -64.767868 833.89355 4280627752
192.41313 -64.830582 833.53058 4280891181
192.71426 -64.721588 833.27087 4281022511
193.25211 -64.798157 833.06964 4281154353
193.58484 -64.701225 832.94952 4281351987
194.14899 -64.782463 832.86151 4281352502
194.50279 -64.689934 832.83405 4281417781
195.08647 -64.780533 832.82941 4281155379
195.45525 -64.696388 832.86597 4281089841
196.05684 -64.792915 832.93591 4281089330
196.43959 -64.710121 833.03296 4281285424
197.05685 -64.808861 833.16718 4280694057
197.45163 -64.730591 833.31305 4280234020
198.07922 -64.835907 833.4895 4280561444
198.46239 -64.758011 833.58527 4280692261
199.07233 -64.856964 833.68591 4280428834
199.45384 -64.773018 833.77582 4280034075
164.06801 -65.151154 844.5119 4278190849
163.7141 -64.862411 840.40643 4278453762
163.66925 -64.71138 838.66022 4278718215
163.83894 -64.633812 837.31995 4279441424
164.21448 -64.556503 836.61334 4279837722
164.53532 -64.537743 836.05212 4280824613
164.94086 -64.478706 835.52234 4281616180
165.29233 -64.463966 835.0979 4282932035
165.72562 -64.422295 834.74384 4283856470
166.1071 -64.426506 834.4693 4285239660
166.56779 -64.398857 834.26599 4287542663
166.97424 -64.408691 834.11676 4289517221
167.46103 -64.380219 834.01208 4291488696
167.88063 -64.396133 833.96344 4292214721
168.39105 -64.368126 833.94397 4293195970
168.82242 -64.390373 833.94525 4291552951
169.34108 -64.372452 833.97253 4290299554
169.7887 -64.397011 834.02374 4288129418
170.31538 -64.381325 834.08685 4285500010
170.77206 -64.408043 834.18591 4283987029
171.30223 -64.395378 834.26361 4283064909
171.74763 -64.42749 834.32031 4282338366
172.27539 -64.402206 834.37982 4281220144
172.71718 -64.435997 834.43787 4280495645
190.61729 -64.770149 839.08997 4278322690
190.12346 -64.566345 836.14886 4278717447
190.55049 -64.520767 835.72675 4279178511
190.83008 -64.493889 835.10321 4279705369
191.24236 -64.43811 834.62292 4280231712
191.53607 -64.418762 834.05725 4280495911
191.95764 -64.364296 833.61639 4280890668
192.3042 -64.363281 833.28668 4281023023
192.76482 -64.323311 833.01624 4281220402
193.14574 -64.334793 832.8385 4281418037
193.63965 -64.303368 832.71344 4281615159
194.04416 -64.317459 832.63947 4281549880
194.5609 -64.291122 832.61163 4281418808
194.9826 -64.315315 832.61377 4281484343
195.51546 -64.298622 832.65332 4281681207
195.95256 -64.329231 832.72144 4281418550
196.50104 -64.314285 832.82489 4281220403
196.95047 -64.343933 832.94525 4280890924
197.51205 -64.335197 833.10162 4280628007
197.96463 -64.371361 833.23499 4280758567
198.51302 -64.358711 833.33319 4280823591
198.95197 -64.385544 833.4115 4280363553
199.49741 -64.371521 833.49091 4279903003
164.03529 -64.553886 844.04468 4278256385
163.3802 -64.076447 837.71619 4278718217
163.80371 -64.11187 836.93268 4279573265
164.07306 -63.979015 836.42975 4280034844
164.55577 -64.037224 835.95239 4280956711
164.82477 -63.90847 835.44965 4281681461
165.31081 -63.966862 835.01416 4282932033
165.61473 -63.854794 834.68829 4283594328
166.12849 -63.932171 834.40637 4285701746
166.46144 -63.832195 834.22247 4288465048
166.9984 -63.914967 834.06952 4290505660
167.35265 -63.816151 833.97681 4292542412
167.91431 -63.901279 833.92981 4293328858
168.28419 -63.804882 833.91663 4293328322
168.85695 -63.896748 833.92261 4291288753
169.23532 -63.809689 833.9541 4289447322
169.82095 -63.905624 834.00891 4287407486
170.20819 -63.818066 834.07184 4285237095
170.80579 -63.917774 834.17511 4283724116
171.19136 -63.832783 834.2384 4282932296
171.78186 -63.928539 834.29858 4282403384
172.16194 -63.839149 834.34912 4281219115
172.75255 -63.934772 834.40155 4280364057
190.55577 -64.175941 838.65491 4278322691
190.26706 -63.910751 835.01562 4279310354
190.73573 -63.957859 834.48322 4279837212
191.00308 -63.836426 834.08148 4280363812
191.51497 -63.903538 833.75702 4280627498
191.78503 -63.786335 833.3598 4281088047
192.29205 -63.852463 833.02557 4281220660
192.59818 -63.746986 832.78802 4281418807
193.13976 -63.823914 832.60486 4281616699
193.47517 -63.727287 832.4967 4281747771
194.04198 -63.808578 832.42169 4281681979
194.3974 -63.716999 832.40167 4281813052
194.98289 -63.809017 832.40723 4281879101
195.35254 -63.72422 832.44781 4282010684
195.95526 -63.818798 832.52472 4281681979
196.33746 -63.737732 832.61945 4281418037
196.95364 -63.838406 832.75037 4281022767
197.34599 -63.760815 832.88696 4280956204
197.96481 -63.862972 833.02747 4280693289
198.34479 -63.782612 833.11005 4280692775
198.94917 -63.87598 833.19019 4280232481
199.32661 -63.794777 833.26001 4280034073
163.65274 -64.019455 842.15198 4278256641
163.43494 -63.896294 840.12225 4278585348
163.56461 -63.725613 838.13208 4278850058
163.77937 -63.661198 837.02661 4279704595
164.16628 -63.594776 836.38818 4280101404
164.49333 -63.579891 835.85828 4281022762
164.90076 -63.521683 835.33856 4281682233
165.25595 -63.51162 834.94196 4283129418
165.69412 -63.471558 834.60431 4283727453
166.07748 -63.478699 834.35107 4286227581
166.54346 -63.450844 834.16412 4289846184
166.95052 -63.464523 834.03033 4292018126
167.44295 -63.43631 833.94263 4294901740
167.86513 -63.454918 833.90845 4294246367
168.37932 -63.426857 833.90582 4293064895
168.81567 -63.447277 833.92102 4291027121
169.33443 -63.429951 833.95905 4289119645
169.78493 -63.452847 834.0152 4286554490
170.30989 -63.438812 834.07849 4284581734
170.76703 -63.467102 834.17346 4283591764
171.2925 -63.455624 834.2348 4282537798
171.7361 -63.481499 834.28485 4281877559
172.26161 -63.459862 834.33362 4280759592
172.70192 -63.497948 834.38049 4280298009
190.17543 -63.719757 837.72052 4278323459
190.05765 -63.600521 835.87305 4278915339
190.41547 -63.531631 835.15509 4279442453
190.69409 -63.506508 834.53027 4279903518
191.10168 -63.450649 834.02863 4280495399
191.41096 -63.437096 833.53241 4280890669
191.83867 -63.38765 833.11938 4281351473
192.1915 -63.391216 832.81873 4281681209
192.65752 -63.352219 832.5722 4281879101
193.04176 -63.362213 832.4104 4281880382
193.53864 -63.329288 832.29877 4282077248
193.94557 -63.346249 832.23639 4281945150
194.46407 -63.324337 832.21759 4282010942
194.88794 -63.350563 832.22943 4282208064
195.42195 -63.331017 832.27551 4282470466
195.86069 -63.358181 832.35052 4281879612
196.40889 -63.343594 832.45416 4281681207
196.85794 -63.376373 832.57343 4281351731
197.41667 -63.367443 832.71942 4281022766
197.86647 -63.403492 832.84058 4280890667
198.41269 -63.390167 832.9306 4280758568
198.84949 -63.414879 833.00006 4280298016
199.39307 -63.400452 833.06976 4279706392
163.61165 -63.4259 841.69995 4278256642
163.30147 -63.105858 837.33716 4278981388
163.74226 -63.145695 836.65057 4279836692
164.01778 -63.016964 836.16815 4280298783
164.51117 -63.078945 835.75293 4281286190
164.78506 -62.953869 835.27429 4282273855
165.27609 -63.017536 834.86755 4283262028
165.58395 -62.908894 834.55963 4284448612
166.10136 -62.985924 834.29974 4286492034
166.43732 -62.885372 834.12915 4290832821
166.97838 -62.968498 833.99023 4293656568
167.33557 -62.872276 833.91168 4294967295
167.89984 -62.959427 833.87732 4294967290
168.2728 -62.864479 833.87891 4292868545
168.84857 -62.954823 833.89905 4290895276
169.23016 -62.865601 833.93903 4289249945
169.81735 -62.961811 833.99884 4286356088
170.20441 -62.876213 834.06537 4284185440
170.80315 -62.976387 834.17145 4283197263
171.1825 -62.888538 834.21063 4282405957
171.77388 -62.983562 834.27271 4281680436
172.15512 -62.898342 834.32874 4280889894
190.38507 -63.39888 839.47839 4278387968
190.22231 -63.180962 838.00879 4278454789
190.10301 -63.11871 835.87463 4279112717
190.2529 -62.957836 834.94855 4279639831
190.68604 -63.000343 834.28687 4279969825
190.93307 -62.873848 833.78662 4280693290
191.40393 -62.929317 833.29291 4280957743
191.67813 -62.814846 832.91473 4281484086
192.18819 -62.883415 832.60236 4282142015
192.50018 -62.778706 832.38367 4282537285
193.04272 -62.854572 832.21399 4282473034
193.38239 -62.756886 832.1167 4282275396
193.95003 -62.843403 832.05444 4281946687
194.30913 -62.754025 832.04272 4281880384
194.8969 -62.844646 832.05902 4282273856
195.26822 -62.759743 832.1076 4282405443
195.87271 -62.854458 832.19299 4281879870
196.25557 -62.773697 832.29095 4281616185
196.8718 -62.873337 832.42273 4281549364
197.26157 -62.795452 832.54962 4281154608
197.87801 -62.897827 832.68085 4281021996
198.25587 -62.815914 832.75665 4280889896
198.85806 -62.909321 832.82739 4280494880
199.23402 -62.828079 832.88953 4279902998
163.22644 -62.950283 840.57788 4278257154
163.23964 -62.863747 839.09454 4278782983
163.47127 -62.744892 837.67633 4279244559
163.73187 -62.699932 836.81549 4279968536
164.12117 -62.636211 836.17847 4280562210
164.45016 -62.620934 835.65887 4281483823
164.8633 -62.566826 835.16882 4281881919
165.22235 -62.563934 834.79956 4283393865
165.66602 -62.525127 834.48224 4283992670
166.05177 -62.533691 834.25079 4287871112
166.52234 -62.503674 834.07874 4293065911
166.93024 -62.519913 833.95935 4294967286
167.42775 -62.492435 833.88702 4294967295
167.85233 -62.51302 833.86389 4294967295
168.36946 -62.484989 833.87598 4293655229
168.81088 -62.504642 833.9046 4290434722
169.33104 -62.488415 833.95013 4288527252
169.78235 -62.513046 834.01129 4286157172
170.30959 -62.49876 834.08563 4283527768
170.76715 -62.526966 834.18555 4282801738
171.28989 -62.515121 834.2312 4282208838
171.73302 -62.540527 834.28986 4281548338
172.26189 -62.521816 834.34937 4280430625
189.8524 -62.862499 839.06049 4278453507
190.15083 -62.774467 837.59924 4278521094
189.99873 -62.638321 835.63696 4279310096
190.3105 -62.558136 834.7262 4279837209
190.58647 -62.53371 834.07922 4280298787
190.9894 -62.4762 833.55829 4280760110
191.30859 -62.467228 833.1051 4281286707
191.73851 -62.419868 832.71155 4282076219
192.09709 -62.423912 832.42847 4282537285
192.5639 -62.385838 832.20264 4283062860
192.95398 -62.39373 832.0517 4282998607
193.44826 -62.36755 831.95276 4282800970
193.8631 -62.385616 831.9024 4282603592
194.38014 -62.364323 831.89392 4282603588
194.80984 -62.387257 831.91589 4282799945
195.34468 -62.369991 831.97443 4282799431
195.78722 -62.398872 832.05774 4282274116
196.33618 -62.384136 832.16534 4281879101
196.7868 -62.416355 832.29083 4281352758
197.341 -62.404358 832.41931 4281154866
197.79121 -62.441204 832.54285 4281022254
198.33575 -62.42683 832.62805 4280758313
198.77151 -62.452965 832.69025 4280363551
199.31416 -62.438148 832.75525 4279706389
163.15865 -62.335957 839.90717 4278322691
162.9034 -62.255146 837.32935 4278849288
163.26189 -62.142311 837.1452 4279310865
163.72646 -62.19595 836.59595 4280165914
164.00069 -62.068611 836.1001 4280825125
164.46689 -62.122814 835.55646 4281615663
164.74818 -62.002571 835.11395 4282275389
165.24394 -62.069492 834.73315 4284182341
165.55644 -61.963306 834.44812 4284517728
166.07733 -62.041382 834.20941 4288466562
166.41608 -61.941696 834.05121 4293918661
166.96176 -62.023911 833.92737 4294967295
167.3214 -61.928581 833.86023 4294967295
167.88759 -62.016628 833.83673 4294967295
168.2627 -61.921516 833.84821 4293917889
168.84091 -62.012234 833.88013 4290040217
169.22443 -61.924267 833.92206 4287277442
169.81345 -62.020378 833.98749 4285498467
170.2029 -61.936272 834.07068 4283590996
170.79132 -62.033131 834.12329 4282538825
171.16838 -61.943459 834.15564 4282403647
171.75961 -62.037949 834.21796 4281415981
189.82713 -62.348652 838.59503 4278454018
189.78566 -62.162971 837.0722 4278652425
190.00002 -62.138584 835.43549 4279376401
190.16304 -61.98711 834.57538 4279903771
190.59064 -62.028599 833.89014 4280496935
190.83542 -61.90551 833.37939 4281154865
191.30899 -61.962185 832.90643 4281419576
191.5872 -61.848686 832.54321 4282011968
192.0975 -61.919598 832.24512 4282866508
192.41408 -61.815426 832.04156 4283589461
192.95612 -61.893559 831.88464 4283262810
193.29996 -61.797497 831.79834 4283590487
193.86905 -61.886036 831.7514 4283197270
194.23325 -61.796326 831.74878 4283262547
194.82295 -61.886402 831.77875 4283327572
195.19983 -61.801018 831.84033 4283195216
195.80557 -61.897926 831.93475 4282406473
196.19141 -61.817207 832.03748 4281945153
196.80905 -61.917023 832.1767 4281221687
197.19557 -61.838116 832.29028 4281220146
197.80142 -61.935173 832.37738 4280956461
198.17787 -61.853191 832.44989 4280889640
198.77823 -61.946796 832.51166 4280363037
162.73647 -62.065125 841.29407 4278387457
163.17583 -61.985596 840.2923 4278323459
163.14314 -61.876842 838.60858 4278980874
163.40384 -61.775982 837.36627 4279574037
163.68355 -61.738178 836.58844 4280298014
164.07263 -61.675495 835.9505 4280957224
164.40865 -61.664864 835.4671 4281878065
164.82939 -61.614784 835.0166 4282407230
165.19167 -61.617844 834.672 4284444750
165.64252 -61.581203 834.38324 4284849507
166.03001 -61.592213 834.17181 4289648015
166.50534 -61.559799 834.01324 4294967261
166.9138 -61.576523 833.90936 4294967295
167.41588 -61.547665 833.84717 4294967295
167.84213 -61.570099 833.83215 4294967295
168.36041 -61.542755 833.84949 4292541372
168.80406 -61.56274 833.88715 4289446029
169.3252 -61.545013 833.92993 4286422388
169.77661 -61.572025 834.00092 4285102428
170.31221 -61.560894 834.10846 4283262795
170.77095 -61.594227 834.22333 4282668866
171.29929 -61.576797 834.28815 4282140988
171.74602 -61.604591 834.37494 4281218346
172.28091 -61.590065 834.45074 4279970071
189.89473 -61.961159 839.50629 4278191106
189.81491 -61.93631 839.01611 4278519813
189.8647 -61.779476 836.94135 4278784522
189.89938 -61.667809 835.22229 4279639572
190.22002 -61.587315 834.34979 4280232990
190.49854 -61.568645 833.71423 4280760105
190.8967 -61.51046 833.17938 4281353013
191.22075 -61.503056 832.74225 4282076991
191.6506 -61.458271 832.36481 4282997576
192.01558 -61.459682 832.09418 4283590230
192.48015 -61.424541 831.88562 4284181855
192.87871 -61.432587 831.74738 4284249185
193.3699 -61.409843 831.66156 4284314973
193.79449 -61.428093 831.62744 4284381281
194.30815 -61.411633 831.63007 4284380511
194.74686 -61.431473 831.66608 4283854683
195.28128 -61.414562 831.73895 4283525208
195.72939 -61.442703 831.83136 4282801742
196.27782 -61.430164 831.94403 4282274630
196.73209 -61.464268 832.07843 4281484088
197.28117 -61.451275 832.18512 4281089327
197.71898 -61.482685 832.25745 4280956459
198.26012 -61.464405 832.32886 4280758312
198.69296 -61.49297 832.37738 4280363037
163.01894 -61.758251 844.85925 4278190593
163.14709 -61.580318 841.16486 4278387713
163.00632 -61.386806 839.8894 4278388997
163.0444 -61.350376 837.98553 4279112716
163.27496 -61.202255 837.2334 4279771159
163.70016 -61.241631 836.48285 4280429856
163.95712 -61.110767 835.89807 4281154346
164.42761 -61.167664 835.38373 4282009905
164.71732 -61.052788 834.97668 4282734657
165.21574 -61.125858 834.61975 4284642888
165.53532 -61.021412 834.36023 4285701743
166.05771 -61.099525 834.14264 4289917346
166.40155 -60.998066 833.99829 4294967291
166.95049 -61.079594 833.89124 4294967295
167.3119 -60.985058 833.8324 4294967295
167.87947 -61.074093 833.81525 4294967295
168.25627 -60.979996 833.82715 4292602806
168.83601 -61.069584 833.86304 4289313923
169.21771 -60.978455 833.89331 4285632362
169.80742 -61.077766 833.96655 4284511053
170.2029 -60.998737 834.07672 4282736196
170.79283 -61.097729 834.14026 4282537789
171.17276 -61.005253 834.19275 4281877556
171.77206 -61.105976 834.2981 4280955425
189.78397 -61.386555 839.35211 4278256642
189.49258 -61.135853 835.80304 4278981902
189.82967 -61.144703 834.70789 4279903000
190.05109 -61.010326 834.10553 4280364834
190.50688 -61.065636 833.54865 4281023789
190.75064 -60.942745 833.03351 4281748026
191.22441 -61.002296 832.57227 4282341958
191.50659 -60.889839 832.22375 4283459668
192.0163 -60.959743 831.93787 4284248675
192.33797 -60.855274 831.74988 4285366382
192.88145 -60.936962 831.60864 4285237361
193.23018 -60.843067 831.53589 4285041003
193.80177 -60.933914 831.50781 4285566064
194.17033 -60.844631 831.51611 4285236075
194.76244 -60.935486 831.56317 4284512100
195.14545 -60.849541 831.63873 4284116829
195.75206 -60.946438 831.74097 4282999635
196.14137 -60.865845 831.84924 4282537800
196.75972 -60.966846 831.99286 4281484854
197.14038 -60.885601 832.0752 4280564013
197.74336 -60.982224 832.15143 4280890665
198.11598 -60.895508 832.20905 4280954918
198.71147 -60.99131 832.24823 4280494107
162.99884 -61.287781 843.67957 4278190849
162.69946 -61.107471 841.18079 4278453506
162.90714 -60.99577 839.68347 4278586630
163.02158 -60.899681 838.04877 4279309839
163.34647 -60.809685 837.0946 4279837465
163.63301 -60.783859 836.36322 4280496161
164.03203 -60.720383 835.76324 4281220395
164.37302 -60.712029 835.30627 4282206773
164.80064 -60.666462 834.89014 4282342722
165.1674 -60.673634 834.56824 4284905556
165.62297 -60.638603 834.30438 4286167669
166.01463 -60.650707 834.11267 4292870075
166.49266 -60.616516 833.97113 4294967295
166.90479 -60.632736 833.88263 4294967295
167.40822 -60.60463 833.8299 4294967295
167.83832 -60.62545 833.81989 4294967295
168.35378 -60.600056 833.83392 4290568355
168.7999 -60.620979 833.8739 4288653692
169.3165 -60.601875 833.89496 4285500516
169.76939 -60.631245 833.97601 4284312399
170.30922 -60.622635 834.10278 4282670148
170.75381 -60.649113 834.15918 4282339131
171.28625 -60.630169 834.23804 4281483570
171.737 -60.667946 834.35303 4280627231
189.6505 -60.968815 838.90918 4278257410
189.59703 -60.930805 838.0882 4278717704
189.64021 -60.763271 835.97766 4279310865
189.76711 -60.690216 834.67285 4280100636
190.1324 -60.621742 833.98444 4280694055
190.42075 -60.606998 833.39404 4281418547
190.81747 -60.551537 832.85864 4282078014
191.14354 -60.546284 832.43237 4283065677
191.57455 -60.49939 832.07068 4284643422
191.94228 -60.500549 831.8114 4285302640
192.40756 -60.467918 831.61829 4285894265
192.81108 -60.479729 831.49811 4286093692
193.30484 -60.460209 831.42865 4286684284
193.73701 -60.477787 831.41504 4286421630
194.25079 -60.460934 831.42969 4286287741
194.69832 -60.480015 831.48413 4285564531
195.23317 -60.465179 831.56921 4284708964
195.68692 -60.492237 831.66925 4283525462
196.23418 -60.481384 831.78503 4282866766
196.68988 -60.516243 831.91888 4281747517
197.23656 -60.50219 832.01489 4280892209
197.6734 -60.531662 832.08502 4280759083
198.21217 -60.510685 832.14612 4280495398
198.64388 -60.544872 832.18933 4280297243
162.69267 -60.671432 843.09204 4278256386
162.82861 -60.605267 840.93781 4278454018
162.74409 -60.398361 839.34979 4278717961
163.05234 -60.403889 838.00848 4279441680
163.23283 -60.243717 837.04736 4279969307
163.65924 -60.28503 836.28265 4280628259
163.91675 -60.156925 835.7113 4281155373
164.39606 -60.218269 835.24298 4282207539
164.69206 -60.107052 834.86688 4282736454
165.19478 -60.180897 834.53302 4285106254
165.51918 -60.078346 834.29742 4287022215
166.04485 -60.15728 834.09924 4293656531
166.39223 -60.056393 833.97137 4294967295
166.94405 -60.13805 833.87946 4294967295
167.30742 -60.042755 833.82794 4294967295
167.87541 -60.129726 833.8136 4294967295
168.25256 -60.036304 833.81866 4288726431
168.83177 -60.129143 833.85022 4287932015
169.20779 -60.039188 833.85675 4285103969
169.80005 -60.137619 833.93927 4284508495
170.1991 -60.059925 834.07129 4283653449
170.79001 -60.156082 834.13623 4282798911
171.17729 -60.069401 834.23413 4281351212
171.78938 -60.178532 834.40088 4280560919
189.645 -60.415443 838.84955 4278322947
189.31329 -60.142979 835.03326 4279442708
189.7169 -60.177254 834.24005 4280429600
189.96107 -60.046688 833.72913 4281154348
190.43274 -60.106922 833.25 4281878838
190.67778 -59.985352 832.73981 4282407492
191.1516 -60.045292 832.29102 4283527509
191.43828 -59.932907 831.95807 4284909672
191.94894 -60.004631 831.68427 4285831548
192.27354 -59.9025 831.50983 4286620550
192.82181 -59.986813 831.39038 4286819470
193.1741 -59.895679 831.33362 4287475085
193.75076 -59.984665 831.32874 4287342738
194.12228 -59.894039 831.34906 4287340428
194.71698 -59.988644 831.41577 4286287997
195.10564 -59.903416 831.50031 4284906856
195.71269 -60.000908 831.60895 4284116315
196.10402 -59.918457 831.7149 4282932559
196.71951 -60.019321 831.84918 4281944643
197.09239 -59.936523 831.89056 4281548088
197.69052 -60.028545 831.94934 4280693550
198.05905 -59.941929 831.98547 4280494884
198.64932 -60.037975 832.00067 4280099863
162.68761 -60.237747 842.35046 4278256641
162.54971 -60.103954 840.44495 4278585348
162.7886 -60.012074 839.09546 4278849802
162.96724 -59.930378 837.78284 4279573523
163.30482 -59.853596 836.8999 4280101150
163.59189 -59.827827 836.16187 4280694053
163.99524 -59.769474 835.60168 4281222192
164.34123 -59.765015 835.17096 4282339640
164.77441 -59.721718 834.78455 4282150216
165.14577 -59.730537 834.48676 4285435232
165.60593 -59.695427 834.24866 4287097490
166.0014 -59.709732 834.07703 4294967294
166.48553 -59.675877 833.95538 4294967295
166.90079 -59.691177 833.88153 4294967295
167.40582 -59.661507 833.83765 4294967295
167.83902 -59.68095 833.82965 4294967295
168.35188 -59.659149 833.83209 4288269714
168.79544 -59.683231 833.86139 4286877540
169.30554 -59.660126 833.85016 4284381529
169.75922 -59.688717 833.93848 4284310610
170.27873 -59.673691 833.96381 4283323973
170.71553 -59.697594 833.99164 4282271545
171.24471 -59.677372 834.05713 4280759336
189.31548 -59.959019 838.03351 4278323715
189.26257 -59.886082 836.63354 4279046925
189.48686 -59.771191 835.32318 4279837208
189.69659 -59.731613 834.38196 4280758565
190.06523 -59.664616 833.71429 4281417518
190.35587 -59.64896 833.12909 4282208059
190.74825 -59.595459 832.59131 4282737737
191.07909 -59.590446 832.17908 4284251229
191.51172 -59.545616 831.83368 4285962867
191.88193 -59.548904 831.58649 4286688902
192.3524 -59.517952 831.40771 4287674261
192.75671 -59.534004 831.30902 4287938459
193.26053 -59.50943 831.2569 4288659100
193.69182 -59.530495 831.26489 4288264867
194.21202 -59.513332 831.2926 4287801243
194.66266 -59.536079 831.36652 4286486406
195.20102 -59.520088 831.45825 4285301356
195.65669 -59.547596 831.56573 4284445025
196.20222 -59.536217 831.67615 4283326033
196.65465 -59.570099 831.78888 4282142021
197.19536 -59.554455 831.85938 4281155385
197.6312 -59.581615 831.92712 4280824619
198.16875 -59.561176 831.9787 4280166689
162.38202 -59.61002 841.70636 4278322178
162.534 -59.611172 840.23285 4278651652
162.63255 -59.422054 838.83179 4278981388
162.9825 -59.436089 837.68274 4279705366
163.18254 -59.289265 836.82172 4280298272
163.61574 -59.330055 836.0788 4280825640
163.88271 -59.207985 835.56219 4281615667
164.36778 -59.270187 835.11737 4282865721
164.6678 -59.162495 834.76837 4282543437
165.17679 -59.237438 834.46106 4286227545
165.50435 -59.136288 834.24945 4289067951
166.03529 -59.213825 834.07104 4294967295
166.38652 -59.115047 833.9624 4294967295
166.94125 -59.196922 833.88385 4294967295
